11.52579975 13.69369984 2.66887999 1.000000
11.70650005 13.52709961 2.71299005 1.000000
11.35820007 13.85089970 2.65064001 1.000000
11.77200031 13.48900032 2.71697998 1.000000
11.15520000 13.97360039 2.65651989 1.000000
11.46689987 13.79889965 2.65067005 1.000000
11.52589989 13.75549984 2.70426989 1.000000
11.21360016 13.96319962 2.64422989 1.000000
11.68340015 13.62909985 2.69039989 1.000000
11.18270016 14.00660038 2.63101006 1.000000
11.70860004 13.66580009 2.67402005 1.000000
11.85879993 13.51130009 2.72863007 1.000000
11.63309956 13.75549984 2.71142006 1.000000
11.28310013 14.00720024 2.63472009 1.000000
11.49489975 13.88609982 2.63661003 1.000000
11.02869987 14.11779976 2.64357996 1.000000
11.52260017 13.86989975 2.64275002 1.000000
11.37520027 13.96990013 2.65473008 1.000000
10.99559975 14.17529964 2.64924002 1.000000
11.78520012 13.70750046 2.71906996 1.000000
11.21220016 14.10540009 2.66250992 1.000000
11.81280041 13.69060040 2.67234993 1.000000
11.69069958 13.82639980 2.66455007 1.000000
11.46930027 13.99400043 2.62576008 1.000000
11.57629967 13.93280029 2.64203000 1.000000
11.30889988 14.09850025 2.61961007 1.000000
11.13309956 14.17500019 2.68184996 1.000000
10.91149998 14.24050045 2.65926003 1.000000
11.82100010 13.72459984 2.68083000 1.000000
11.98620033 13.52849960 2.74801993 1.000000
10.86419964 14.26200008 2.64796996 1.000000
11.48099995 14.02210045 2.62855005 1.000000
11.77299976 13.85019970 2.64083004 1.000000
11.40489960 14.11709976 2.60354996 1.000000
11.33189964 14.15830040 2.61458993 1.000000
11.63739967 13.98299980 2.63079000 1.000000
10.79590034 14.33819962 2.65557003 1.000000
11.01799965 14.29230022 2.61811996 1.000000
12.04730034 13.57079983 2.70696998 1.000000
10.92240047 14.33020020 2.62541008 1.000000
11.96679974 13.70849991 2.66991997 1.000000
12.03509998 13.62230015 2.69422007 1.000000
10.86590004 14.35289955 2.65781999 1.000000
11.76550007 13.92329979 2.64491010 1.000000
11.54419994 14.09619999 2.61417007 1.000000
11.99590015 13.69470024 2.67078996 1.000000
11.25640011 14.25220013 2.63463998 1.000000
11.86480045 13.84720039 2.69447994 1.000000
12.19289970 13.64430046 2.71843004 1.000000
12.22620010 13.65600014 2.73676991 1.000000
12.01299953 13.77900028 2.65921998 1.000000
12.16279984 13.77079964 2.68939996 1.000000
12.44569969 13.59809971 2.69997001 1.000000
11.92860031 13.89290047 2.64453006 1.000000
12.20119953 13.78090000 2.66185999 1.000000
12.34879971 13.69449997 2.68367004 1.000000
12.43560028 13.64570045 2.69793010 1.000000
11.88020039 13.93480015 2.64593005 1.000000
12.10879993 13.86439991 2.64698005 1.000000
12.05690002 13.89770031 2.66157007 1.000000
11.74100018 14.00870037 2.61550999 1.000000
11.95849991 13.97710037 2.65090990 1.000000
12.45170021 13.72599983 2.69571996 1.000000
12.50259972 13.68929958 2.69669008 1.000000
12.38889980 13.78769970 2.68947005 1.000000
11.85029984 14.02950001 2.62758994 1.000000
12.00290012 13.98960018 2.64903998 1.000000
12.24919987 13.89900017 2.65961003 1.000000
11.64350033 14.08930016 2.60268998 1.000000
11.97099972 14.03400040 2.61835003 1.000000
12.17660046 13.95660019 2.63322997 1.000000
12.32180023 13.89280033 2.68019009 1.000000
11.71059990 14.10540009 2.63246012 1.000000
12.00990009 14.04660034 2.64267993 1.000000
12.24499989 13.94950008 2.71099997 1.000000
12.10410023 14.01840019 2.65022993 1.000000
11.69659996 14.13169956 2.61350989 1.000000
11.59259987 14.16020012 2.61671996 1.000000
12.59360027 13.76729965 2.69085002 1.000000
11.83129978 14.16489983 2.60625005 1.000000
12.31760025 13.99310017 2.66423988 1.000000
12.58259964 13.81519985 2.67968011 1.000000
11.39879990 14.20320034 2.59802008 1.000000
11.98840046 14.14700031 2.60501003 1.000000
12.49909973 13.89920044 2.68619990 1.000000
12.48239994 13.91670036 2.69009995 1.000000
11.66069984 14.22560024 2.63934994 1.000000
12.02530003 14.15299988 2.63738990 1.000000
11.44250011 14.23449993 2.59527993 1.000000
11.57409954 14.23530006 2.58032990 1.000000
12.32279968 14.04969978 2.62317991 1.000000
12.68430042 13.79689980 2.68715000 1.000000
12.27709961 14.08679962 2.62540007 1.000000
11.75730038 14.25139999 2.59526992 1.000000
11.83670044 14.24180031 2.58385992 1.000000
12.54399967 13.95600033 2.64392996 1.000000
12.13469982 14.17980003 2.62035990 1.000000
12.76620007 13.77350044 2.67808008 1.000000
12.46920013 14.03320026 2.63764000 1.000000
11.93210030 14.26299953 2.59099007 1.000000
11.65579987 14.31099987 2.59123993 1.000000
11.19309998 14.29510021 2.59784007 1.000000
11.23779964 14.30519962 2.59879994 1.000000
12.25419998 14.16079998 2.61728001 1.000000
12.89529991 13.69559956 2.71581006 1.000000
12.97729969 13.72309971 2.71649003 1.000000
12.83539963 13.79529953 2.68499994 1.000000
13.03269958 13.75889969 2.71813989 1.000000
12.80469990 13.83559990 2.69687009 1.000000
12.98849964 13.81900024 2.68415999 1.000000
12.68910027 13.89900017 2.66807008 1.000000
12.74110031 13.89190006 2.71357989 1.000000
13.11460018 13.79209995 2.68561006 1.000000
13.00349998 13.84990025 2.67627001 1.000000
12.70160007 13.92899990 2.67317009 1.000000
12.68260002 13.94589996 2.65078998 1.000000
12.93770027 13.90180016 2.67158008 1.000000
12.86890030 13.92710018 2.65939999 1.000000
13.13129997 13.86740017 2.69844007 1.000000
13.22560024 13.82940006 2.68934011 1.000000
12.73379993 14.00800037 2.66065001 1.000000
12.69159985 14.04860020 2.65131998 1.000000
12.54800034 14.07919979 2.65040994 1.000000
13.08259964 13.96969986 2.66145992 1.000000
13.25489998 13.90299988 2.67033005 1.000000
13.16650009 13.94919968 2.67030001 1.000000
12.90079975 14.05210018 2.65908003 1.000000
13.46640015 13.79539967 2.69727993 1.000000
12.88370037 14.07390022 2.64383006 1.000000
12.43029976 14.12779999 2.65303993 1.000000
13.38049984 13.87650013 2.67978001 1.000000
12.78030014 14.11789989 2.65495992 1.000000
13.35760021 13.91370010 2.68163991 1.000000
12.91040039 14.10719967 2.69665003 1.000000
13.12800026 14.05179977 2.65561008 1.000000
13.42819977 13.89480019 2.69852996 1.000000
13.02509975 14.09560013 2.64539003 1.000000
12.62419987 14.17630005 2.63126993 1.000000
12.31540012 14.17339993 2.60120010 1.000000
12.56060028 14.18509960 2.66969991 1.000000
13.25979996 14.02079964 2.68987012 1.000000
13.55020046 13.84270000 2.70783997 1.000000
12.58899975 14.21469975 2.62704992 1.000000
13.68400002 13.76259995 2.72266006 1.000000
13.12129974 14.11970043 2.64948010 1.000000
12.88000011 14.19460011 2.67030001 1.000000
13.09790039 14.13609982 2.64562988 1.000000
12.61550045 14.24730015 2.61464000 1.000000
12.42440033 14.24969959 2.60012007 1.000000
12.29870033 14.24429989 2.60416007 1.000000
12.72490025 14.24800014 2.64129996 1.000000
13.34780025 14.04819965 2.66455007 1.000000
13.53499985 13.92959976 2.70584011 1.000000
12.98369980 14.20049953 2.63303995 1.000000
13.46500015 13.99230003 2.68670988 1.000000
13.63409996 13.87609959 2.69892001 1.000000
12.89179993 14.24260044 2.63718009 1.000000
12.05720043 14.24079990 2.64683008 1.000000
12.31429958 14.29850006 2.59371996 1.000000
13.07590008 14.21730042 2.63183999 1.000000
12.37170029 14.31019974 2.62262011 1.000000
12.14820004 14.28439999 2.59568000 1.000000
13.26729965 14.15649986 2.67730999 1.000000
13.47659969 14.04230022 2.69063997 1.000000
13.63169956 13.94239998 2.70383000 1.000000
12.45989990 14.35159969 2.60153008 1.000000
13.41979980 14.11540031 2.67966008 1.000000
14.07040024 13.69079971 2.81360006 1.000000
13.96920013 13.75389957 2.76590991 1.000000
14.14550018 13.69890022 2.79988003 1.000000
13.84619999 13.83959961 2.79345012 1.000000
14.06420040 13.77079964 2.79978991 1.000000
13.79179955 13.88440037 2.72855997 1.000000
13.76920033 13.89999962 2.73953009 1.000000
14.15620041 13.76369953 2.79520988 1.000000
14.24790001 13.71899986 2.83429003 1.000000
14.05949974 13.83080006 2.77024007 1.000000
14.36779976 13.66440010 2.89574003 1.000000
13.99569988 13.86929989 2.75768995 1.000000
13.92300034 13.93099976 2.74678993 1.000000
14.13490009 13.85809994 2.78582001 1.000000
14.39200020 13.71689987 2.87678003 1.000000
14.05980015 13.91479969 2.80603004 1.000000
14.42350006 13.70930004 2.85362005 1.000000
13.81560040 13.99689960 2.72041988 1.000000
14.46350002 13.68599987 2.86061001 1.000000
14.21100044 13.88720036 2.85915995 1.000000
13.53460026 14.06159973 2.71977997 1.000000
13.60809994 14.05939960 2.74160004 1.000000
14.11789989 13.93610001 2.78162003 1.000000
14.61880016 13.61349964 2.94000006 1.000000
14.00539970 14.00290012 2.81987000 1.000000
13.98770046 14.01860046 2.77687001 1.000000
13.74540043 14.08360004 2.76535010 1.000000
14.55259991 13.72049999 2.88018990 1.000000
14.58510017 13.69509983 2.87783003 1.000000
13.84189987 14.09160042 2.73192000 1.000000
14.23509979 13.95419979 2.88220000 1.000000
14.12240028 14.01819992 2.77717996 1.000000
13.52449989 14.14560032 2.71992993 1.000000
13.38650036 14.14789963 2.67379999 1.000000
14.38939953 13.89449978 2.83966994 1.000000
14.48799992 13.83290005 2.88442993 1.000000
13.68389988 14.15260029 2.70367002 1.000000
14.52810001 13.80900002 2.86483002 1.000000
13.82830048 14.15069962 2.75678992 1.000000
14.01070023 14.10519981 2.77643991 1.000000
14.25829983 14.00679970 2.82584000 1.000000
14.37899971 13.95189953 2.85493994 1.000000
13.73419952 14.18519974 2.71887994 1.000000
13.95610046 14.14949989 2.75217009 1.000000
14.77079964 13.64159966 2.97046995 1.000000
13.33329964 14.22150040 2.69635010 1.000000
14.50759983 13.90139961 2.86971998 1.000000
14.63300037 13.81690025 2.90019989 1.000000
14.66619968 13.78999996 2.93741012 1.000000
13.75049973 14.22920036 2.77397990 1.000000
13.69699955 14.23799992 2.71322989 1.000000
14.87590027 13.57180023 2.94507003 1.000000
14.83209991 13.62909985 3.02336001 1.000000
13.92870045 14.20119953 2.78070998 1.000000
13.20259953 14.23209953 2.64484000 1.000000
14.19489956 14.12300014 2.87911010 1.000000
13.42959976 14.26780033 2.68821001 1.000000
13.57470036 14.26790047 2.71196008 1.000000
14.41639996 14.02250004 2.85396004 1.000000
14.77260017 13.74009991 2.91834998 1.000000
14.49629974 13.97589970 2.88678002 1.000000
14.35669994 14.06229973 2.85711002 1.000000
13.18179989 14.27210045 2.64495993 1.000000
14.21300030 14.14999962 2.83939004 1.000000
14.71140003 13.82759953 2.92501998 1.000000
14.12679958 14.20359993 2.81920004 1.000000
13.52000046 14.31770039 2.70875001 1.000000
13.81849957 14.29510021 2.75692010 1.000000
14.84410000 13.73099995 2.93466997 1.000000
14.90839958 13.68400002 2.96056008 1.000000
14.04800034 14.26159954 2.78737998 1.000000
14.64130020 13.95009995 2.89244008 1.000000
13.92339993 14.30039978 2.79099011 1.000000
13.89920044 14.31350040 2.73624992 1.000000
13.13360023 14.32489967 2.68183994 1.000000
14.31830025 14.16790009 2.85929990 1.000000
13.66699982 14.35359955 2.72233009 1.000000
13.48029995 14.36719990 2.70646000 1.000000
14.27369976 14.21000004 2.83643007 1.000000
12.96700001 14.30669975 2.68479991 1.000000
13.27009964 14.38459969 2.64497995 1.000000
13.71269989 14.38780022 2.71216989 1.000000
14.50349998 14.11089993 2.94457006 1.000000
13.09060001 14.35859966 2.64703989 1.000000
14.52740002 14.09809971 2.86578989 1.000000
13.31879997 14.39869976 2.66000009 1.000000
14.46030045 14.15429974 2.85713005 1.000000
14.85309982 13.85009956 2.94843006 1.000000
15.03789997 13.66549969 3.04211998 1.000000
15.15540028 13.67080021 3.01262999 1.000000
15.03439999 13.74289989 2.99002004 1.000000
14.99310017 13.76130009 2.99898005 1.000000
15.24510002 13.67689991 3.02426004 1.000000
14.98610020 13.81709957 2.98065996 1.000000
15.04959965 13.82499981 2.99371004 1.000000
15.22169971 13.74300003 3.01931000 1.000000
15.11800003 13.79990005 2.99417996 1.000000
15.33189964 13.74180031 3.02859998 1.000000
14.93080044 13.93820000 2.94984007 1.000000
15.10770035 13.88659954 2.98940992 1.000000
14.84490013 13.97889996 2.92971992 1.000000
15.05679989 13.92039967 3.00620008 1.000000
14.79829979 13.99730015 2.91816998 1.000000
14.74530029 14.01420021 2.98166990 1.000000
15.25310040 13.84469986 3.02216005 1.000000
15.30440044 13.83220005 3.03245997 1.000000
14.69849968 14.05370045 2.89832997 1.000000
15.52089977 13.71380043 3.06315994 1.000000
15.41510010 13.79780006 3.04899001 1.000000
15.12679958 13.96599960 2.99142003 1.000000
14.91709995 14.04249954 2.94938993 1.000000
14.89109993 14.04940033 2.97199988 1.000000
15.60599995 13.68319988 3.08950996 1.000000
15.00030041 14.05720043 2.95862007 1.000000
15.21140003 13.98449993 2.98975992 1.000000
15.41569996 13.86940002 3.03642988 1.000000
14.89649963 14.10480022 2.94876003 1.000000
14.68579960 14.15569973 2.90651011 1.000000
15.30959988 13.95890045 3.00528002 1.000000
15.63519955 13.71980000 3.09227991 1.000000
14.74829960 14.17870045 2.90980005 1.000000
15.51739979 13.86229992 3.04649997 1.000000
15.13319969 14.09189987 2.98937988 1.000000
14.90799999 14.16530037 2.94688010 1.000000
15.43150043 13.94509983 3.02100992 1.000000
15.02400017 14.13969994 2.95790005 1.000000
15.70720005 13.72319984 3.08467007 1.000000
15.15600014 14.11760044 2.98494005 1.000000
15.77340031 13.69089985 3.13006997 1.000000
14.67370033 14.24269962 2.95630002 1.000000
14.31560040 14.24279976 2.85128999 1.000000
15.30389977 14.05889988 3.01119995 1.000000
15.26850033 14.07789993 2.98820996 1.000000
14.83489990 14.22579956 2.93120003 1.000000
14.45940018 14.26920033 2.88134003 1.000000
14.57849979 14.26869965 2.93829989 1.000000
15.52659988 13.95269966 3.04399991 1.000000
14.73060036 14.27939987 2.95734000 1.000000
15.62160015 13.89809990 3.05513000 1.000000
15.83570004 13.70890045 3.12436008 1.000000
14.94869995 14.25020027 2.95284009 1.000000
15.21860027 14.15849972 3.00118995 1.000000
14.52400017 14.32299995 2.91038990 1.000000
15.01099968 14.25230026 2.99808002 1.000000
15.31690025 14.13539982 2.98687005 1.000000
15.60560036 13.96129990 3.04467010 1.000000
15.45689964 14.07559967 3.01405001 1.000000
15.53829956 14.02719975 3.04416990 1.000000
14.34969997 14.34510040 2.90963006 1.000000
14.49479961 14.35140038 2.87176991 1.000000
15.74820042 13.86170006 3.07884002 1.000000
14.24639988 14.33810043 2.82821012 1.000000
14.10029984 14.33189964 2.86281991 1.000000
15.94419956 13.68540001 3.13175011 1.000000
15.20530033 14.23729992 2.97991991 1.000000
16.01959991 13.62829971 3.16403008 1.000000
15.12139988 14.29399967 2.96700001 1.000000
14.68540001 14.39290047 2.90066004 1.000000
14.73439980 14.39089966 2.90981007 1.000000
15.41110039 14.17220020 2.99135995 1.000000
14.06200027 14.36089993 2.77197003 1.000000
14.45670033 14.41380024 2.87540007 1.000000
14.92910004 14.36520004 2.96513009 1.000000
15.15200043 14.30500031 2.97863007 1.000000
14.89019966 14.38669968 2.92922997 1.000000
14.64239979 14.43579960 2.90147996 1.000000
14.21790028 14.42319965 2.83318996 1.000000
15.21210003 14.30920029 2.96923995 1.000000
15.77999973 13.96049976 3.06010008 1.000000
15.87100029 13.87930012 3.08568001 1.000000
14.57670021 14.45040035 2.88594007 1.000000
14.39710045 14.45670033 2.85250998 1.000000
14.94950008 14.40750027 2.94829988 1.000000
15.65690041 14.08020020 3.03670001 1.000000
16.10700035 13.64910030 3.17015004 1.000000
15.99170017 13.76589966 3.11835003 1.000000
16.22270012 13.67249966 3.17832994 1.000000
16.09630013 13.75850010 3.16229010 1.000000
16.50510025 13.48680019 3.24218988 1.000000
16.31780052 13.65390015 3.18753004 1.000000
16.11009979 13.79780006 3.14251995 1.000000
16.45730019 13.56690025 3.21865010 1.000000
15.90460014 13.89270020 3.10762000 1.000000
16.20030022 13.77079964 3.15452003 1.000000
16.51689911 13.56219959 3.22817993 1.000000
16.01810074 13.89080048 3.11300993 1.000000
16.65550041 13.45189953 3.26446009 1.000000
15.94869995 13.93509960 3.09060001 1.000000
16.44939995 13.67450047 3.19470000 1.000000
16.34910011 13.75450039 3.17223001 1.000000
15.84490013 13.99170017 3.07453990 1.000000
16.18980026 13.87909985 3.12975001 1.000000
16.59090042 13.61610031 3.22013998 1.000000
16.70549965 13.49330044 3.25235009 1.000000
16.24539948 13.87720013 3.13667989 1.000000
16.03380013 13.97939968 3.09154010 1.000000
16.66239929 13.56989956 3.24041009 1.000000
15.75940037 14.06579971 3.04202008 1.000000
15.85029984 14.05809975 3.05260992 1.000000
16.11039925 13.98830032 3.09647012 1.000000
16.61059952 13.66090012 3.21296000 1.000000
16.46139908 13.79459953 3.18552995 1.000000
16.50270081 13.77350044 3.19769001 1.000000
15.95849991 14.06340027 3.07001996 1.000000
16.80509949 13.47210026 3.26014996 1.000000
16.71409988 13.59290028 3.22961998 1.000000
15.64109993 14.13749981 3.01877999 1.000000
16.37459946 13.89379978 3.14974999 1.000000
16.21960068 13.98649979 3.11750007 1.000000
15.51869965 14.18039989 3.00971007 1.000000
16.07929993 14.07929993 3.07966995 1.000000
15.74779987 14.16909981 3.02690005 1.000000
16.45630074 13.89669991 3.14696002 1.000000
16.30400085 13.99269962 3.13284993 1.000000
15.81610012 14.17099953 3.03025007 1.000000
16.51569939 13.86120033 3.16130996 1.000000
15.62250042 14.20890045 3.00840998 1.000000
16.64900017 13.76430035 3.19625998 1.000000
16.72979927 13.68610001 3.21549010 1.000000
16.11599922 14.09949970 3.08196998 1.000000
15.43430042 14.22690010 3.01536012 1.000000
16.89819908 13.51430035 3.25162005 1.000000
15.91679955 14.18400002 3.05503011 1.000000
16.94879913 13.44589996 3.26079011 1.000000
16.02409935 14.15709972 3.05747008 1.000000
16.25670052 14.06499958 3.09631991 1.000000
16.17239952 14.11050034 3.08839011 1.000000
17.00900078 13.36789989 3.27877998 1.000000
16.41749954 13.99409962 3.13263011 1.000000
15.83899975 14.24100018 3.02632999 1.000000
15.38059998 14.27350044 2.99271011 1.000000
15.76770020 14.25590038 3.02992010 1.000000
16.81699944 13.68750000 3.21853995 1.000000
16.52029991 13.95330048 3.14257002 1.000000
16.72820091 13.79199982 3.19930005 1.000000
16.32060051 14.08800030 3.09914994 1.000000
16.29540062 14.10200024 3.10104990 1.000000
15.91530037 14.24380016 3.05227995 1.000000
15.52099991 14.29469967 3.02793002 1.000000
16.91640091 13.59440041 3.23866010 1.000000
16.80769920 13.72679996 3.21827006 1.000000
15.35070038 14.31079960 2.97936010 1.000000
16.65979958 13.89330006 3.17117000 1.000000
16.03440094 14.23610020 3.05211997 1.000000
16.43280029 14.06120014 3.11518002 1.000000
16.11730003 14.21780014 3.06341004 1.000000
15.62829971 14.32349968 2.99338007 1.000000
17.07270050 13.44169998 3.27468991 1.000000
16.62800026 13.95979977 3.15475011 1.000000
16.21400070 14.20540047 3.07280993 1.000000
16.36009979 14.13599968 3.09904003 1.000000
15.85210037 14.32199955 3.02537990 1.000000
16.95549965 13.65820026 3.22881007 1.000000
15.58370018 14.36709976 2.99254990 1.000000
16.76390076 13.87559986 3.19769001 1.000000
17.07819939 13.51150036 3.26117992 1.000000
15.40960026 14.38220024 2.97408009 1.000000
16.43350029 14.13259983 3.11104989 1.000000
15.74759960 14.36919975 3.00225997 1.000000
17.15419960 13.39939976 3.28205991 1.000000
15.92889977 14.34000015 3.02588010 1.000000
16.91930008 13.75090027 3.24122000 1.000000
17.11750031 13.48299980 3.27255988 1.000000
16.54369926 14.09350014 3.13237000 1.000000
16.03420067 14.33769989 3.04744005 1.000000
16.80050087 13.89939976 3.19875002 1.000000
16.70680046 13.98289967 3.17398000 1.000000
17.01429939 13.67689991 3.23235011 1.000000
16.60829926 14.07579994 3.14890003 1.000000
17.23959923 13.38829994 3.28842998 1.000000
17.22260094 13.48089981 3.27220011 1.000000
17.37560081 13.38930035 3.28699994 1.000000
17.18140030 13.57120037 3.25292993 1.000000
17.20520020 13.56309986 3.25799990 1.000000
17.44729996 13.38179970 3.29696989 1.000000
17.39900017 13.47780037 3.27725005 1.000000
17.40959930 13.47210026 3.27855992 1.000000
17.07760048 13.71129990 3.22874999 1.000000
17.16440010 13.69540024 3.23813009 1.000000
17.21789932 13.66629982 3.25724006 1.000000
17.37109947 13.56120014 3.26448011 1.000000
17.51689911 13.45779991 3.28843999 1.000000
17.40810013 13.58059978 3.26552010 1.000000
17.62430000 13.36120033 3.31053996 1.000000
17.36370087 13.65929985 3.26030993 1.000000
17.21170044 13.76369953 3.22995996 1.000000
17.19120026 13.77649975 3.22899008 1.000000
16.93429947 13.89540005 3.20480990 1.000000
17.03199959 13.86639977 3.20801997 1.000000
17.48259926 13.63809967 3.28385997 1.000000
16.81450081 13.98110008 3.18245006 1.000000
17.12360001 13.87839985 3.21846008 1.000000
17.57150078 13.56410027 3.28560996 1.000000
17.30249977 13.78269958 3.23923993 1.000000
17.66740036 13.46080017 3.30434990 1.000000
17.20079994 13.85309982 3.22438002 1.000000
17.41500092 13.72480011 3.25885010 1.000000
16.94249916 13.96790028 3.19749999 1.000000
17.77359962 13.38829994 3.32414007 1.000000
17.82180023 13.32419968 3.33948994 1.000000
16.71750069 14.05729961 3.15878010 1.000000
17.03829956 13.97990036 3.20009995 1.000000
17.33209991 13.83619976 3.23956990 1.000000
17.73040009 13.48239994 3.30877995 1.000000
16.83499908 14.04860020 3.17682004 1.000000
17.23509979 13.90709972 3.22411990 1.000000
17.11409950 13.96840000 3.21251011 1.000000
17.65609932 13.59099960 3.29975009 1.000000
17.55330086 13.69180012 3.27396011 1.000000
16.91589928 14.04580021 3.18792009 1.000000
17.61429977 13.65089989 3.29313993 1.000000
16.71059990 14.10869980 3.16462994 1.000000
17.71109962 13.57359982 3.30182004 1.000000
17.01219940 14.04310036 3.20220995 1.000000
17.40329933 13.85490036 3.24742007 1.000000
16.82169914 14.10709953 3.16901994 1.000000
17.82830048 13.46630001 3.31908011 1.000000
17.71529961 13.62460041 3.29901004 1.000000
17.57769966 13.76089954 3.27273011 1.000000
16.61510086 14.16329956 3.14190006 1.000000
17.31180000 13.96959972 3.23300004 1.000000
17.40119934 13.91829967 3.24657989 1.000000
17.81909943 13.53929996 3.32011008 1.000000
17.02400017 14.10429955 3.19741011 1.000000
17.92670059 13.39190006 3.35193992 1.000000
17.65900040 13.72599983 3.28047991 1.000000
16.59329987 14.19400024 3.13767004 1.000000
16.93409920 14.13889980 3.18456006 1.000000
18.01829910 13.26550007 3.36735010 1.000000
17.18099976 14.06859970 3.21368003 1.000000
17.50429916 13.88689995 3.26648998 1.000000
17.80450058 13.61480045 3.30928993 1.000000
17.91060066 13.49020004 3.32993007 1.000000
17.71710014 13.74250031 3.29062009 1.000000
16.44309998 14.24940014 3.10341001 1.000000
16.60190010 14.25020027 3.12408996 1.000000
17.65080070 13.81709957 3.28015995 1.000000
18.00799942 13.39700031 3.35482001 1.000000
17.50390053 13.95310020 3.26691008 1.000000
17.32390022 14.06789970 3.23602009 1.000000
17.28300095 14.09080029 3.23344994 1.000000
17.90340042 13.58950043 3.32273006 1.000000
16.37849998 14.28689957 3.09973001 1.000000
17.19709969 14.14500046 3.21887994 1.000000
16.57640076 14.29139996 3.11688995 1.000000
18.01639938 13.44470024 3.34746003 1.000000
16.93429947 14.24199963 3.18445992 1.000000
17.42880058 14.03310013 3.25747991 1.000000
17.81329918 13.71650028 3.31097007 1.000000
17.03019905 14.22189999 3.19395995 1.000000
16.62439919 14.30280018 3.13583994 1.000000
17.90169907 13.63329983 3.32656002 1.000000
17.70689964 13.84490013 3.29258990 1.000000
16.75830078 14.29489994 3.15063000 1.000000
16.39539909 14.32159996 3.09633994 1.000000
16.85099983 14.29520035 3.16329002 1.000000
17.22780037 14.18799973 3.22251010 1.000000
18.12969971 13.37409973 3.37396002 1.000000
18.20730019 13.32400036 3.39303994 1.000000
18.12420082 13.40089989 3.37258005 1.000000
18.02619934 13.53859997 3.34734011 1.000000
18.31030083 13.36159992 3.41666007 1.000000
18.23220062 13.43680000 3.39320993 1.000000
18.10829926 13.56060028 3.35788989 1.000000
18.41110039 13.35700035 3.42913008 1.000000
18.30470085 13.47830009 3.40352011 1.000000
18.01230049 13.67430019 3.34454012 1.000000
17.96290016 13.70759964 3.33448005 1.000000
18.40340042 13.43439960 3.42360997 1.000000
18.30439949 13.53040028 3.39723992 1.000000
18.22660065 13.59780025 3.38017988 1.000000
18.54039955 13.32810020 3.45384002 1.000000
18.10149956 13.69629955 3.36309004 1.000000
18.21640015 13.64589977 3.37817001 1.000000
18.02219963 13.76249981 3.34583998 1.000000
17.82810020 13.84239960 3.31101990 1.000000
18.50620079 13.46370029 3.45050001 1.000000
18.37179947 13.61419964 3.41558003 1.000000
18.10619926 13.79290009 3.36432004 1.000000
18.03989983 13.82470036 3.36620998 1.000000
17.76049995 13.92140007 3.30739999 1.000000
18.62779999 13.39589977 3.47008991 1.000000
18.28720093 13.71329975 3.40534997 1.000000
18.44549942 13.59599972 3.43392992 1.000000
17.91589928 13.89319992 3.33453989 1.000000
18.70199966 13.31449986 3.47886992 1.000000
17.66749954 13.96630001 3.28941011 1.000000
17.81250000 13.94519997 3.31475997 1.000000
18.33989906 13.71329975 3.41246009 1.000000
18.50679970 13.59630013 3.45167994 1.000000
18.41790009 13.68190002 3.42865992 1.000000
18.10610008 13.87290001 3.37124991 1.000000
18.64459991 13.47070026 3.47716999 1.000000
17.92049980 13.95059967 3.34594011 1.000000
17.64030075 14.02009964 3.29217005 1.000000
17.57789993 14.02869987 3.29768991 1.000000
18.43420029 13.71259975 3.44444990 1.000000
18.50099945 13.66829967 3.45160007 1.000000
18.08429909 13.92889977 3.36809993 1.000000
18.21559906 13.86779976 3.38936996 1.000000
18.80349922 13.31589985 3.50075006 1.000000
18.62849998 13.55609989 3.47969007 1.000000
18.60420036 13.60239983 3.48767996 1.000000
18.12490082 13.93589973 3.39076996 1.000000
18.75609970 13.43000031 3.49618006 1.000000
17.71240044 14.08339977 3.30897999 1.000000
18.36100006 13.84539986 3.43368006 1.000000
18.71459961 13.53059959 3.49956989 1.000000
18.23749924 13.92150021 3.40717006 1.000000
18.80209923 13.42619991 3.51483011 1.000000
18.41920090 13.82349968 3.44579005 1.000000
17.52330017 14.12269974 3.27605009 1.000000
17.84059906 14.09679985 3.32870007 1.000000
18.51490021 13.78779984 3.48049998 1.000000
17.60759926 14.15120029 3.29491997 1.000000
18.00499916 14.07409954 3.35910010 1.000000
17.95280075 14.09329987 3.35074997 1.000000
18.92230034 13.33559990 3.52606010 1.000000
18.60540009 13.74279976 3.49972010 1.000000
18.14039993 14.04109955 3.38916993 1.000000
17.40940094 14.18089962 3.25756001 1.000000
18.22069931 14.01799965 3.40890002 1.000000
18.31189919 13.97249985 3.43132997 1.000000
18.71610069 13.66079998 3.51670003 1.000000
18.40789986 13.92059994 3.45848989 1.000000
17.91069984 14.13930035 3.34654999 1.000000
17.33079910 14.18700027 3.25159001 1.000000
17.73110008 14.18000031 3.31725001 1.000000
18.81690025 13.55980015 3.53968000 1.000000
17.87010002 14.16030025 3.33505011 1.000000
17.60939980 14.20199966 3.28891993 1.000000
18.92729950 13.42479992 3.54181004 1.000000
17.43540001 14.21220016 3.26407003 1.000000
18.05360031 14.12170029 3.36999011 1.000000
18.10939980 14.10490036 3.38600993 1.000000
19.03260040 13.26760006 3.54361010 1.000000
18.70470047 13.73009968 3.51656008 1.000000
18.63249969 13.80290031 3.50784993 1.000000
18.55249977 13.87360001 3.48709011 1.000000
18.82159996 13.62930012 3.54650998 1.000000
18.30900002 14.04769993 3.43362999 1.000000
17.34449959 14.24380016 3.24081993 1.000000
19.02129936 13.34410000 3.54750991 1.000000
18.90480042 13.53149986 3.56428003 1.000000
17.51740074 14.25839996 3.27601004 1.000000
18.54350090 13.91569996 3.49412990 1.000000
17.73299980 14.25129986 3.31884003 1.000000
17.92049980 14.22959995 3.35557008 1.000000
17.27770042 14.28069973 3.23042011 1.000000
18.25410080 14.12849998 3.42360997 1.000000
18.91060066 13.60480022 3.56627989 1.000000
17.50090027 14.30309963 3.28535008 1.000000
17.11120033 14.26150036 3.20529008 1.000000
17.82019997 14.27649975 3.33265996 1.000000
17.35580063 14.30049992 3.24820995 1.000000
17.68659973 14.30469990 3.30890989 1.000000
19.04999924 13.42650032 3.57300997 1.000000
19.10239983 13.39159966 3.56787992 1.000000
19.10670090 13.40690041 3.57732010 1.000000
19.20540047 13.33780003 3.58172011 1.000000
19.00219917 13.52029991 3.57287002 1.000000
19.23679924 13.42220020 3.58470988 1.000000
19.18479919 13.51029968 3.58284998 1.000000
19.32710075 13.39830017 3.59156990 1.000000
19.31290054 13.41409969 3.58695006 1.000000
19.00939941 13.62699986 3.58397007 1.000000
19.26020050 13.51350021 3.58816004 1.000000
19.13960075 13.60990047 3.59601998 1.000000
18.90950012 13.72189999 3.57745004 1.000000
18.80559921 13.76500034 3.55479002 1.000000
19.50849915 13.35680008 3.59366012 1.000000
19.40340042 13.47809982 3.59713006 1.000000
19.24589920 13.63669968 3.60070992 1.000000
18.70960045 13.85389996 3.52382994 1.000000
19.37630081 13.53909969 3.59864998 1.000000
18.80610085 13.83609962 3.55115008 1.000000
18.90909958 13.81480026 3.57557988 1.000000
19.42300034 13.52630043 3.60005999 1.000000
19.01029968 13.79599953 3.60013008 1.000000
19.37010002 13.61509991 3.60156012 1.000000
18.71780014 13.91460037 3.53182006 1.000000
19.19949913 13.74390030 3.61224008 1.000000
18.80319977 13.90919971 3.55324006 1.000000
19.41699982 13.61190033 3.60354996 1.000000
19.03219986 13.84790039 3.60406995 1.000000
19.57780075 13.47760010 3.60175991 1.000000
18.60659981 13.96969986 3.50890994 1.000000
19.34770012 13.71399975 3.60980010 1.000000
19.27140045 13.77289963 3.61370993 1.000000
19.69790077 13.37979984 3.59681010 1.000000
18.61149979 14.00599957 3.51174998 1.000000
18.90929985 13.95189953 3.57854009 1.000000
19.61210060 13.50059986 3.60068989 1.000000
19.16780090 13.85400009 3.61708999 1.000000
18.50259972 14.02410030 3.48117995 1.000000
19.63470078 13.48859978 3.61019993 1.000000
19.56649971 13.56910038 3.60265994 1.000000
19.71570015 13.39060020 3.59934998 1.000000
18.70890045 14.03120041 3.53803992 1.000000
19.03800011 13.95129967 3.60776997 1.000000
19.20350075 13.89340019 3.61698008 1.000000
18.41880035 14.07999992 3.46518993 1.000000
18.91370010 14.02309990 3.57692003 1.000000
19.53240013 13.68780041 3.60986996 1.000000
19.47599983 13.74569988 3.61231995 1.000000
19.50289917 13.73139954 3.61092997 1.000000
19.01160049 14.01700020 3.60191989 1.000000
18.61809921 14.10859966 3.51563001 1.000000
18.80270004 14.08749962 3.55229998 1.000000
19.81469917 13.41119957 3.59627008 1.000000
19.37549973 13.85400009 3.61456990 1.000000
18.42449951 14.12489986 3.46631002 1.000000
19.19429970 13.96660042 3.61624002 1.000000
18.72279930 14.13259983 3.54422998 1.000000
19.43190002 13.84759998 3.61397004 1.000000
19.78849983 13.49899960 3.59853005 1.000000
19.68799973 13.62090015 3.60710001 1.000000
19.87949944 13.36789989 3.59588003 1.000000
18.32449913 14.14830017 3.44400001 1.000000
19.71080017 13.61170006 3.60652995 1.000000
19.29030037 13.95160007 3.61562991 1.000000
19.60390091 13.72280025 3.61578012 1.000000
18.80290031 14.14070034 3.55627990 1.000000
19.77689934 13.58080006 3.60367990 1.000000
18.90539932 14.14060020 3.58545995 1.000000
19.10549927 14.07499981 3.61799002 1.000000
18.50419998 14.19890022 3.49898005 1.000000
18.55739975 14.20790005 3.50784993 1.000000
19.33399963 13.98190022 3.61349010 1.000000
19.01029968 14.13790035 3.60578990 1.000000
19.32649994 14.00269985 3.61437011 1.000000
19.28000069 14.03330040 3.61804008 1.000000
19.10740089 14.11260033 3.62147999 1.000000
19.85989952 13.53859997 3.59941006 1.000000
18.20980072 14.21109962 3.41624999 1.000000
19.97139931 13.36979961 3.59203005 1.000000
19.56110001 13.85309982 3.61588001 1.000000
18.61140060 14.23050022 3.52388000 1.000000
18.70070076 14.22399998 3.54212999 1.000000
19.46540070 13.93309975 3.61452007 1.000000
20.00460052 13.33670044 3.59064007 1.000000
19.96269989 13.41549969 3.59294009 1.000000
18.16710091 14.22430038 3.40043998 1.000000
19.74309921 13.72299957 3.61550999 1.000000
18.46710014 14.26770020 3.49586010 1.000000
19.50849915 13.94810009 3.61658001 1.000000
18.30979919 14.27029991 3.45429993 1.000000
19.69580078 13.81029987 3.61825991 1.000000
19.89229965 13.60099983 3.59991002 1.000000
18.81870079 14.26830006 3.57575011 1.000000
18.04210091 14.25059986 3.36851001 1.000000
19.96170044 13.53750038 3.59704995 1.000000
18.25079918 14.30710030 3.44057012 1.000000
19.42350006 14.06110001 3.61874008 1.000000
18.90850067 14.27460003 3.59506011 1.000000
20.05780029 13.46590042 3.58871007 1.000000
20.19449997 13.38370037 3.58523989 1.000000
20.22200012 13.38160038 3.58781004 1.000000
20.15369987 13.47859955 3.58684993 1.000000
20.26829910 13.45540047 3.58979988 1.000000
20.08979988 13.58800030 3.59104991 1.000000
20.07399940 13.60840034 3.59318995 1.000000
20.14550018 13.57699966 3.59001994 1.000000
20.12059975 13.60060024 3.59594989 1.000000
19.93020058 13.70100021 3.61064005 1.000000
19.98130035 13.69369984 3.59997010 1.000000
20.25149918 13.53779984 3.58993006 1.000000
19.88850021 13.74139977 3.60580993 1.000000
20.42090034 13.40240002 3.59556007 1.000000
20.34869957 13.48060036 3.58904004 1.000000
20.33589935 13.50049973 3.59033990 1.000000
20.13979912 13.71140003 3.59395003 1.000000
20.07889938 13.75450039 3.59789991 1.000000
19.78230095 13.86540031 3.61662006 1.000000
20.50029945 13.46300030 3.60493994 1.000000
20.23859978 13.68809986 3.59018993 1.000000
19.86319923 13.86680031 3.60878992 1.000000
20.32780075 13.64610004 3.59164000 1.000000
19.97809982 13.85569954 3.60545993 1.000000
20.44820023 13.59080029 3.59417009 1.000000
20.00480080 13.86550045 3.60442996 1.000000
20.64119911 13.38720036 3.61722994 1.000000
19.67970085 13.96030045 3.62050009 1.000000
19.93889999 13.90170002 3.60647011 1.000000
20.25950050 13.75179958 3.59078002 1.000000
20.44059944 13.62880039 3.59622002 1.000000
19.78930092 13.96070004 3.61675000 1.000000
20.19440079 13.81789970 3.59718990 1.000000
20.60390091 13.49349976 3.60836005 1.000000
19.50979996 14.00730038 3.62322998 1.000000
20.36790085 13.72070026 3.59418011 1.000000
20.25149918 13.80729961 3.59553003 1.000000
20.06340027 13.91240025 3.60345006 1.000000
20.40460014 13.72640038 3.59594011 1.000000
19.84939957 13.99559975 3.60839009 1.000000
20.74379921 13.37399960 3.63057995 1.000000
19.68869972 14.03740025 3.62091994 1.000000
20.59860039 13.57509995 3.60208011 1.000000
20.12929916 13.92150021 3.60169005 1.000000
19.78319931 14.04780006 3.61432004 1.000000
20.64699936 13.55599976 3.60759997 1.000000
20.37439919 13.80510044 3.60050011 1.000000
20.55360031 13.67780018 3.60343003 1.000000
20.20219994 13.92549992 3.60015011 1.000000
19.88789940 14.04609966 3.60596991 1.000000
19.99979973 14.01889992 3.60628009 1.000000
20.81349945 13.39089966 3.63005996 1.000000
20.07029915 14.00459957 3.60420990 1.000000
20.54360008 13.71539974 3.60165000 1.000000
19.36619949 14.13280010 3.61810994 1.000000
20.77510071 13.49940014 3.62197995 1.000000
20.75559998 13.53050041 3.61525011 1.000000
20.63030052 13.68309975 3.60074997 1.000000
19.41069984 14.15550041 3.62292004 1.000000
20.81920052 13.47399998 3.62547994 1.000000
20.10499954 14.04389954 3.60400009 1.000000
20.49519920 13.82030010 3.60290003 1.000000
20.51849937 13.80980015 3.60489988 1.000000
20.61109924 13.72959995 3.60180998 1.000000
19.77809906 14.14750004 3.61227989 1.000000
20.92729950 13.33220005 3.64313006 1.000000
20.31649971 13.95930004 3.60115004 1.000000
19.28039932 14.16969967 3.62120008 1.000000
19.52260017 14.18229961 3.62290001 1.000000
20.73439980 13.62300014 3.61192012 1.000000
19.64839935 14.18719959 3.61817002 1.000000
19.82649994 14.16829967 3.60753989 1.000000
20.84219933 13.51609993 3.62625003 1.000000
20.42700005 13.91699982 3.60477996 1.000000
19.49279976 14.21059990 3.61946011 1.000000
20.06189919 14.12810040 3.60559011 1.000000
19.99589920 14.16769981 3.60657001 1.000000
20.25209999 14.06529999 3.60276008 1.000000
19.29770088 14.23499966 3.62077999 1.000000
19.68390083 14.23630047 3.61563993 1.000000
19.89060020 14.20170021 3.60661006 1.000000
20.30640030 14.04370022 3.60315990 1.000000
20.83079910 13.61110020 3.62224007 1.000000
20.92049980 13.49409962 3.63579988 1.000000
19.57340050 14.25430012 3.61625004 1.000000
20.71400070 13.75419998 3.61506009 1.000000
19.77499962 14.23910046 3.60960007 1.000000
20.10110092 14.15760040 3.60658002 1.000000
20.55750084 13.90760040 3.61269999 1.000000
19.37030029 14.27040005 3.61704993 1.000000
20.62549973 13.85540009 3.61144996 1.000000
19.96459961 14.22319984 3.60802007 1.000000
20.04479980 14.20139980 3.60915995 1.000000
20.90309906 13.58679962 3.63840008 1.000000
19.11219978 14.25990009 3.62214994 1.000000
20.28140068 14.11929989 3.60513997 1.000000
19.52820015 14.30840015 3.62034011 1.000000
20.61450005 13.91199970 3.61894011 1.000000
19.31660080 14.30770016 3.61939001 1.000000
19.62330055 14.31210041 3.61791992 1.000000
20.50180054 14.00669956 3.61195993 1.000000
20.33839989 14.10929966 3.60628009 1.000000
19.25769997 14.31260014 3.62286997 1.000000
21.02260017 13.49639988 3.64795995 1.000000
21.10320091 13.46910000 3.65018010 1.000000
21.22739983 13.39270020 3.66500998 1.000000
21.02149963 13.56070042 3.64432001 1.000000
21.22220039 13.48550034 3.65842009 1.000000
21.16150093 13.54599953 3.65373993 1.000000
20.93280029 13.66390038 3.63606000 1.000000
21.05419922 13.61489964 3.64397001 1.000000
20.91500092 13.70429993 3.64299989 1.000000
21.31250000 13.48980045 3.65869999 1.000000
20.80080032 13.77910042 3.62486005 1.000000
21.48999977 13.39949989 3.66337991 1.000000
21.15309906 13.67300034 3.64596009 1.000000
21.06380081 13.72210026 3.64233994 1.000000
21.29710007 13.58749962 3.65387988 1.000000
20.81509972 13.82269955 3.63516998 1.000000
20.72279930 13.84270000 3.62312007 1.000000
21.38780022 13.53820038 3.65847993 1.000000
21.46759987 13.47200012 3.65388989 1.000000
20.90819931 13.81820011 3.64006996 1.000000
21.28300095 13.64680004 3.64933991 1.000000
21.60300064 13.36270046 3.65732002 1.000000
21.14170074 13.75020027 3.64707994 1.000000
21.45499992 13.58320045 3.65551996 1.000000
21.61289978 13.42049980 3.64980006 1.000000
21.33250046 13.68260002 3.64998007 1.000000
20.80010033 13.92049980 3.64249992 1.000000
21.06590080 13.84280014 3.64855003 1.000000
21.59189987 13.46980000 3.64586997 1.000000
21.13059998 13.82009983 3.65458012 1.000000
20.71170044 13.95020008 3.62770009 1.000000
21.31590080 13.72599983 3.64942002 1.000000
21.58069992 13.52369976 3.64608002 1.000000
20.91790009 13.93589973 3.65560007 1.000000
21.26219940 13.79590034 3.64664006 1.000000
21.47789955 13.64470005 3.64710999 1.000000
20.63059998 14.01690006 3.62342000 1.000000
21.12980080 13.90089989 3.65535998 1.000000
21.09169960 13.92160034 3.65576005 1.000000
20.81599998 14.01000023 3.64984012 1.000000
21.45179939 13.71910000 3.64537001 1.000000
21.24580002 13.85639954 3.65037990 1.000000
20.73850060 14.03209972 3.64158010 1.000000
20.46050072 14.05389977 3.61018991 1.000000
21.64170074 13.56680012 3.63995004 1.000000
21.52540016 13.68379974 3.64311004 1.000000
21.00419998 14.00909996 3.66289997 1.000000
21.74979973 13.49530029 3.64313006 1.000000
21.36560059 13.86410046 3.64864993 1.000000
20.71750069 14.10470009 3.64227009 1.000000
21.27820015 13.92440033 3.65830994 1.000000
20.50670052 14.12699986 3.61448002 1.000000
20.91060066 14.08100033 3.66173005 1.000000
20.64710045 14.12619972 3.63190007 1.000000
21.81550026 13.47140026 3.63898993 1.000000
20.45680046 14.13990021 3.61322999 1.000000
21.88820076 13.37469959 3.65485001 1.000000
21.74110031 13.57489967 3.62972999 1.000000
20.85379982 14.10690022 3.65502000 1.000000
21.69989967 13.62909985 3.62771010 1.000000
21.41839981 13.87209988 3.64947009 1.000000
21.58970070 13.74829960 3.63385010 1.000000
21.32379913 13.93990040 3.65537000 1.000000
20.93210030 14.10169983 3.66273999 1.000000
21.57200050 13.81760025 3.63643003 1.000000
20.50749969 14.20520020 3.61953998 1.000000
21.13179970 14.08640003 3.67644000 1.000000
20.70520020 14.20049953 3.65227008 1.000000
20.40649986 14.21059990 3.61545992 1.000000
21.95840073 13.39850044 3.64253998 1.000000
21.49020004 13.90100002 3.64738011 1.000000
21.04109955 14.12839985 3.68052006 1.000000
20.27720070 14.20030022 3.60818005 1.000000
20.61230087 14.21370029 3.63652992 1.000000
21.11070061 14.10789967 3.67953992 1.000000
21.79899979 13.65180016 3.61853004 1.000000
21.29730034 14.06099987 3.67981005 1.000000
20.91570091 14.20300007 3.68104005 1.000000
21.69090080 13.78909969 3.62579989 1.000000
20.31019974 14.24300003 3.61429000 1.000000
21.97990036 13.45740032 3.62799001 1.000000
21.39520073 14.03040028 3.66673994 1.000000
21.89620018 13.59340000 3.61869001 1.000000
22.09399986 13.27939987 3.63450003 1.000000
20.11639977 14.23659992 3.61104012 1.000000
21.82979965 13.68929958 3.61648011 1.000000
21.77669907 13.75430012 3.61598992 1.000000
21.27939987 14.11330032 3.68688989 1.000000
21.65620041 13.87419987 3.62954998 1.000000
20.80139923 14.27140045 3.67028999 1.000000
21.00119972 14.23719978 3.68504000 1.000000
22.08289909 13.37930012 3.63537002 1.000000
20.70590019 14.30420017 3.66113997 1.000000
21.54000092 13.99660015 3.64494991 1.000000
21.36739922 14.10579967 3.68013000 1.000000
22.18869972 13.38840008 3.60294008 1.000000
22.06629944 13.48390007 3.60624003 1.000000
22.28510094 13.34150028 3.60757995 1.000000
22.19820023 13.44359970 3.59607005 1.000000
21.97970009 13.59990025 3.61087990 1.000000
21.94739914 13.62259960 3.60412002 1.000000
22.33639908 13.37020016 3.57889009 1.000000
22.08460045 13.56849957 3.58972001 1.000000
22.35339928 13.40110016 3.57524991 1.000000
22.24720001 13.49989986 3.57766008 1.000000
22.19639969 13.55500031 3.57354999 1.000000
22.01390076 13.66639996 3.59481001 1.000000
22.49819946 13.31190014 3.56578994 1.000000
21.84740067 13.76739979 3.61026001 1.000000
22.27120018 13.57900047 3.56007004 1.000000
21.97470093 13.73999977 3.59375000 1.000000
22.11940002 13.68080044 3.58813000 1.000000
22.24460030 13.62180042 3.57153010 1.000000
21.78359985 13.81890011 3.62033010 1.000000
22.57340050 13.35169983 3.55882001 1.000000
22.45919991 13.48200035 3.55472994 1.000000
22.38669968 13.55440044 3.54645991 1.000000
21.88990021 13.83450031 3.61237001 1.000000
22.52589989 13.44939995 3.55066991 1.000000
22.09309959 13.76790047 3.57832003 1.000000
22.31410027 13.65639973 3.55835009 1.000000
21.99780083 13.82499981 3.60117006 1.000000
22.16830063 13.75990009 3.56366992 1.000000
21.75659943 13.91860008 3.62319994 1.000000
22.49279976 13.54230022 3.54120994 1.000000
22.28280067 13.71910000 3.54842997 1.000000
22.01320076 13.86450005 3.59109998 1.000000
21.87310028 13.92020035 3.61362004 1.000000
21.66200066 13.97469997 3.63212991 1.000000
22.46409988 13.63070011 3.53777003 1.000000
22.69519997 13.38169956 3.54713011 1.000000
21.62409973 14.00790024 3.64256001 1.000000
22.19149971 13.84710026 3.55710006 1.000000
22.73699951 13.37520027 3.54104996 1.000000
22.55299950 13.59449959 3.53820992 1.000000
22.67670059 13.46010017 3.54554009 1.000000
21.49300003 14.04300022 3.66255999 1.000000
21.94759941 13.98390007 3.59729004 1.000000
22.34849930 13.79800034 3.54026008 1.000000
21.73859978 14.04109955 3.63404012 1.000000
22.63389969 13.56770039 3.53585005 1.000000
21.59329987 14.05920029 3.64837003 1.000000
22.71949959 13.48980045 3.53776002 1.000000
22.82810020 13.35639954 3.53603005 1.000000
22.26420021 13.88599968 3.54224992 1.000000
22.59230042 13.66289997 3.52579999 1.000000
22.18350029 13.94839954 3.56276011 1.000000
21.89200020 14.05510044 3.61723995 1.000000
22.08699989 13.99960041 3.56950998 1.000000
22.05150032 14.01869965 3.58304000 1.000000
22.29859924 13.90939999 3.54360008 1.000000
21.48740005 14.12259960 3.67246008 1.000000
22.45870018 13.80869961 3.53654003 1.000000
22.38859940 13.85789967 3.52627993 1.000000
22.84239960 13.42549992 3.53010988 1.000000
22.49340057 13.79459953 3.52713990 1.000000
21.64679909 14.13199997 3.66061997 1.000000
21.74320030 14.12139988 3.64750004 1.000000
21.98730087 14.06910038 3.61420012 1.000000
22.65410042 13.67020035 3.52292991 1.000000
22.76149940 13.57579994 3.53079009 1.000000
22.58029938 13.76140022 3.51794004 1.000000
21.56189919 14.16639996 3.66810012 1.000000
22.16570091 14.04010010 3.56928992 1.000000
22.93930054 13.37170029 3.52782989 1.000000
22.25830078 14.02239990 3.54541993 1.000000
22.38870049 13.95100021 3.52800989 1.000000
21.47019958 14.20489979 3.69216990 1.000000
22.60400009 13.79759979 3.51405001 1.000000
22.04800034 14.12269974 3.59979010 1.000000
22.92819977 13.45189953 3.52853990 1.000000
21.25079918 14.20359993 3.70879006 1.000000
22.76280022 13.66559982 3.52958989 1.000000
21.98870087 14.15279961 3.61269999 1.000000
21.56159973 14.22449970 3.68092990 1.000000
22.89669991 13.51010036 3.52617002 1.000000
21.89380074 14.18249989 3.63170004 1.000000
21.68230057 14.22189999 3.67063999 1.000000
22.48789978 13.92080021 3.52771997 1.000000
21.38890076 14.23390007 3.69805002 1.000000
22.72800064 13.72500038 3.52712989 1.000000
22.65530014 13.81149960 3.51002002 1.000000
23.03359985 13.34230042 3.53043008 1.000000
21.76869965 14.23569965 3.66341996 1.000000
21.88789940 14.22229958 3.65928006 1.000000
22.58810043 13.89229965 3.51016998 1.000000
22.81150055 13.70119953 3.51395988 1.000000
22.18020058 14.14939976 3.58264995 1.000000
22.36039925 14.06350040 3.53015995 1.000000
22.95719910 13.53999996 3.52908993 1.000000
21.10190010 14.25080013 3.70040989 1.000000
23.05620003 13.40810013 3.54717994 1.000000
21.65539932 14.30290031 3.69840002 1.000000
21.30690002 14.30189991 3.71928000 1.000000
21.45389938 14.31219959 3.71236992 1.000000
21.29689980 14.30469990 3.72567010 1.000000
21.56970024 14.31509972 3.69755006 1.000000
22.88139915 13.67689991 3.51684999 1.000000
22.07909966 14.22329998 3.61396003 1.000000
22.59059906 13.95720005 3.50953007 1.000000
23.16069984 13.35270023 3.52681994 1.000000
23.12919998 13.43080044 3.54050994 1.000000
23.27779961 13.32789993 3.53157997 1.000000
23.26149940 13.42479992 3.52358007 1.000000
23.07550049 13.56989956 3.52431011 1.000000
23.17740059 13.55620003 3.52146006 1.000000
23.00149918 13.67420006 3.51606989 1.000000
23.31590080 13.48369980 3.51666999 1.000000
22.99799919 13.68949986 3.51022005 1.000000
22.90530014 13.74650002 3.51307011 1.000000
23.48679924 13.35680008 3.52203989 1.000000
23.28380013 13.57590008 3.51639009 1.000000
23.12840080 13.70049953 3.50951004 1.000000
23.15239906 13.69909954 3.50783992 1.000000
22.71789932 13.86079979 3.50579000 1.000000
23.52980042 13.39299965 3.52436996 1.000000
23.44739914 13.48779964 3.51189995 1.000000
23.34390068 13.59490013 3.52923989 1.000000
23.03100014 13.78559971 3.51244998 1.000000
23.26720047 13.66409969 3.51826000 1.000000
23.20730019 13.70820045 3.51477003 1.000000
23.54350090 13.41870022 3.51580000 1.000000
23.30820084 13.66730022 3.51056004 1.000000
22.99780083 13.83920002 3.50283003 1.000000
22.88389969 13.87749958 3.50591993 1.000000
23.02479935 13.83300018 3.50643992 1.000000
22.64439964 13.93260002 3.50591993 1.000000
22.79570007 13.91549969 3.51181006 1.000000
23.13540077 13.81659985 3.56177998 1.000000
23.45610046 13.59549999 3.50523996 1.000000
22.86680031 13.91779995 3.51202011 1.000000
23.31469917 13.71150017 3.58709002 1.000000
22.90740013 13.91590023 3.51899004 1.000000
23.45079994 13.63049984 3.53267002 1.000000
23.70030022 13.35700035 3.51568007 1.000000
23.68499947 13.38780022 3.51981997 1.000000
23.56769943 13.53600025 3.50398993 1.000000
23.61459923 13.50819969 3.52383995 1.000000
22.81019974 14.00049973 3.51402998 1.000000
22.54010010 14.03619957 3.51313996 1.000000
23.66850090 13.48320007 3.51569009 1.000000
23.73380089 13.40639973 3.50691009 1.000000
22.63649940 14.05589962 3.50838995 1.000000
22.45949936 14.09819984 3.52153993 1.000000
23.81940079 13.40139961 3.54649997 1.000000
22.42630005 14.12409973 3.53506994 1.000000
22.51339912 14.13529968 3.52149010 1.000000
22.36779976 14.14500046 3.53729010 1.000000
23.89749908 13.34710026 3.48078990 1.000000
22.27680016 14.16930008 3.55575991 1.000000
22.42729950 14.20629978 3.53590012 1.000000
22.24710083 14.21580029 3.57326007 1.000000
22.56999969 14.23989964 3.52940989 1.000000
22.19459915 14.20909977 3.58123994 1.000000
22.49570084 14.30029964 3.53399992 1.000000
22.38489914 14.29510021 3.55059004 1.000000
22.25679970 14.31149960 3.57870007 1.000000
22.36009979 14.33629990 3.55532002 1.000000
21.99869919 14.26900005 3.63369989 1.000000
21.97330093 14.31289959 3.64396000 1.000000
22.00650024 14.32940006 3.62757993 1.000000
22.51639938 14.40439987 3.54987001 1.000000
22.15519905 14.37450027 3.60825992 1.000000
0.82847202 18.13549995 3.21847010 1.000000
1.23046994 18.10580063 3.37837005 1.000000
