18.87929916 8.17479992 -1.31910002
19.19210052 8.03359985 -1.24510002
19.23699951 8.05270004 -1.24710000
19.40760040 8.00380039 -1.20560002
19.60740089 8.07960033 -1.17879999
19.81180000 8.12600040 -1.10060000
-14.56700039 8.27099991 -1.04579997
-14.23219967 8.22159958 -1.18560004
-14.06079960 8.20380020 -1.07579994
-13.85779953 8.22239971 -1.17569995
-13.62629986 8.23859978 -1.18110001
-13.46329975 8.24699974 -1.14320004
-13.39070034 8.21329975 -1.22730005
-13.00640011 8.21800041 -1.04680002
-12.91259956 8.32040024 -1.19379997
-12.77830029 8.34189987 -1.15289998
-12.46150017 8.20790005 -1.20760000
-12.31890011 8.24339962 -1.26709998
-12.12609959 8.31529999 -1.25530005
-11.86410046 8.38860035 -1.28480005
-11.78919983 8.32470036 -1.25049996
-11.41590023 8.20040035 -1.25759995
-11.35429955 8.22060013 -1.26830006
-11.18589973 8.33479977 -1.26080000
-10.81110001 8.28429985 -1.23629999
-10.71570015 8.30910015 -1.31190002
-10.58180046 8.30070019 -1.28600001
-10.39910030 8.23330021 -1.15660000
-10.03429985 8.35639954 -1.19500005
-9.96570015 8.22719955 -1.21000004
-9.72959995 8.37749958 -1.18480003
-9.52130032 8.23540020 -1.16040003
-9.22799969 8.22280025 -1.17130005
-9.01780033 8.32759953 -1.14300001
-8.86919975 8.22360039 -1.17709994
-8.71420002 8.21430016 -1.11099994
-8.56849957 8.20160007 -1.08910000
-8.36760044 8.26850033 -0.92760003
-8.12180042 8.26449966 -0.95480001
-7.90390015 8.26000023 -0.91380000
-7.64309978 8.24899960 -1.01380002
-7.52799988 8.30189991 -1.05079997
-7.20330000 8.34710026 -1.20009995
-7.19119978 8.35770035 -1.19270003
-6.97830009 8.20769978 -1.18330002
-6.71770000 8.37619972 -1.36119998
-6.43300009 8.32369995 -1.32539999
-6.20989990 8.22179985 -1.15439999
-6.00680017 8.22850037 -1.23790002
-5.90229988 8.25580025 -1.29709995
-5.66720009 8.29209995 -1.35479999
-5.54129982 8.20530033 -1.29499996
-5.31860018 8.38650036 -1.29310000
-5.02419996 8.21850014 -1.20940006
-4.83750010 8.38210011 -1.25220001
-4.60389996 8.32129955 -1.26699996
-4.49119997 8.39799976 -1.27909994
-4.30579996 8.39519978 -1.23500001
-4.03999996 8.24979973 -1.15149999
-3.80220008 8.25269985 -1.20630002
-3.78629994 8.38510036 -1.22440004
-3.50510001 8.35400009 -1.20940006
-3.39319992 8.39229965 -1.22399998
-3.19849992 8.36600018 -1.15569997
-2.85560012 8.34539986 -1.13339996
-2.78909993 8.37399960 -1.10829997
-2.40190005 8.34729958 -1.07889998
-2.37529993 8.26589966 -1.08589995
-2.18479991 8.38630009 -1.08510005
-1.92079997 8.26529980 -1.03439999
-1.76660001 8.33479977 -1.04799998
-1.50460005 8.23600006 -0.88349998
-1.39409995 8.28569984 -0.64800000
-1.05369997 8.30130005 -0.84369999
-0.99299997 8.39840031 -0.84240001
-0.70190001 8.33880043 -1.16439998
-0.58219999 8.33409977 -1.14300001
-0.21390000 8.39700031 -1.25339997
-0.00530000 8.39879990 -1.20529997
0.18120000 8.38039970 -1.16770005
0.31380001 8.27519989 -1.21689999
0.57110000 8.20289993 -1.36989999
0.60600001 8.20520020 -1.36950004
0.86970001 8.25920010 -1.31229997
1.03120005 8.31820011 -1.24660003
1.22019994 8.32450008 -1.20920002
1.40499997 8.27070045 -1.15450001
1.71500003 8.27369976 -1.25250006
1.80429995 8.37759972 -1.17490005
2.11109996 8.33930016 -1.19190001
2.38669991 8.34809971 -1.18840003
2.47849989 8.38980007 -1.17630005
2.73130012 8.24740028 -1.20560002
2.80430007 8.33320045 -1.18040001
3.01160002 8.29629993 -1.12839997
3.30609989 8.34700012 -1.20060003
3.56620002 8.20110035 -1.17089999
3.63809991 8.20300007 -1.16620004
3.81410003 8.29129982 -1.19690001
4.10489988 8.34200001 -1.20519996
4.38030005 8.22169971 -1.21220005
4.42609978 8.20100021 -1.20650005
4.63570023 8.28170013 -1.18449998
4.83230019 8.22089958 -1.14209998
5.02010012 8.28299999 -1.12650001
5.21239996 8.38440037 -1.11059999
5.40749979 8.38169956 -1.09259999
5.78789997 8.31140041 -1.10179996
5.98999977 8.24440002 -1.08440006
6.02799988 8.20359993 -1.10469997
6.39039993 8.24520016 -1.10699999
6.58190012 8.29969978 -1.11469996
6.60319996 8.36050034 -1.05910003
6.88360023 8.30449963 -0.95340002
7.04879999 8.26509953 -1.01170003
7.24310017 8.24429989 -0.88419998
7.54339981 8.35550022 -0.95200002
7.68359995 8.30249977 -0.95200002
7.89190006 8.20279980 -0.81629997
8.07419968 8.24960041 -0.83749998
8.36439991 8.23330021 -0.78659999
8.41769981 8.25279999 -0.82499999
8.62790012 8.32390022 -0.77630001
8.88049984 8.39850044 -0.89999998
9.18459988 8.39809990 -1.20350003
9.30729961 8.39970016 -1.24570000
9.54800034 8.38070011 -1.26709998
9.62010002 8.37310028 -1.21440005
9.82199955 8.23530006 -1.17830002
10.03320026 8.26760006 -1.15730000
10.23910046 8.37660027 -1.10500002
10.49219990 8.37259960 -1.10020006
10.76119995 8.22159958 -1.18210006
10.98560047 8.38189983 -1.29400003
11.00179958 8.27400017 -1.27429998
11.39949989 8.38119984 -1.17159998
11.58250046 8.38809967 -1.21870005
11.79640007 8.21560001 -1.27489996
11.99899960 8.23349953 -1.33150005
12.17669964 8.39640045 -1.35230005
12.37689972 8.36380005 -1.36300004
13.19830036 8.21360016 -0.86849999
13.26360035 8.32499981 -0.91109997
13.52130032 8.26729965 -0.90429997
13.74479961 8.27569962 -0.84909999
13.98799992 8.33660030 -0.86390001
14.15869999 8.31140041 -1.18470001
14.24930000 8.27130032 -1.03509998
17.59009933 8.21630001 -1.19299996
17.78219986 8.27350044 -1.27769995
17.96780014 8.30850029 -1.29589999
18.00539970 8.33500004 -1.29920006
18.37520027 8.36970043 -1.32500005
18.49370003 8.37749958 -1.32299995
18.71489906 8.32240009 -1.33169997
18.89480019 8.23579979 -1.32579994
19.03899956 8.30920029 -1.35339999
19.20719910 8.25879955 -1.19280005
19.40159988 8.20359993 -1.18149996
19.71339989 8.26239967 -1.13119996
19.81349945 8.20269966 -1.04460001
-14.21290016 8.55630016 -0.93980002
-14.13619995 8.51239967 -1.01499999
-13.96590042 8.56029987 -1.12829995
-13.70110035 8.47529984 -1.05260003
-13.43290043 8.41670036 -0.98310000
-13.25529957 8.41899967 -1.14049995
-13.01099968 8.58730030 -1.14540005
-12.88479996 8.41699982 -1.16820002
-12.78859997 8.40590000 -1.13030005
-12.43169975 8.50889969 -1.16129994
-12.22920036 8.53540039 -1.20099998
-12.03180027 8.55179977 -1.30460000
-11.88449955 8.40089989 -1.27800000
-11.79220009 8.57330036 -1.23889995
-11.57079983 8.54959965 -1.18390000
-11.20100021 8.43270016 -1.24650002
-11.09930038 8.47379971 -1.23989999
-10.83059978 8.56830025 -1.29279995
-10.77579975 8.53699970 -1.29579997
-10.57880020 8.43579960 -1.24280000
-10.20919991 8.59710026 -1.26450002
-10.09060001 8.50739956 -1.26020002
-9.91530037 8.49740028 -1.04460001
-9.77789974 8.46230030 -1.20840001
-9.56250000 8.59899998 -1.13250005
-9.23349953 8.56219959 -0.86159998
-9.09319973 8.48620033 -1.18789995
-8.91679955 8.54679966 -1.11679995
-8.77390003 8.57289982 -0.91970003
-8.54969978 8.47910023 -0.88370001
-8.21940041 8.53859997 -0.94929999
-8.19180012 8.56149960 -0.94910002
-7.86590004 8.47459984 -0.94300002
-7.61649990 8.49940014 -0.82139999
-7.42010021 8.52140045 -1.09350002
-7.20370007 8.43150043 -1.09119999
-7.02139997 8.46059990 -1.15390003
-6.88240004 8.51799965 -1.15129995
-6.62470007 8.40299988 -1.39859998
-6.55870008 8.40209961 -1.31990004
-6.37849998 8.46840000 -1.31970000
-6.11059999 8.57970047 -1.24240005
-5.88990021 8.59160042 -1.36759996
-5.78280020 8.40830040 -1.27740002
-5.50559998 8.52680016 -1.35829997
-5.28259993 8.47980022 -1.33140004
-5.00260019 8.47319984 -1.27699995
-4.99760008 8.50310040 -1.27460003
-4.77099991 8.50739956 -1.26139998
-4.45100021 8.45950031 -1.29729998
-4.27010012 8.59319973 -1.30209994
-4.19950008 8.56309986 -1.27310002
-3.82649994 8.43470001 -1.19480002
-3.64680004 8.58790016 -1.20060003
-3.49070001 8.45730019 -1.22590005
-3.37339997 8.59570026 -1.22669995
-3.19849992 8.59679985 -1.22560000
-2.97029996 8.56239986 -1.17589998
-2.74659991 8.58020020 -1.13300002
-2.50180006 8.43159962 -1.13709998
-2.28559995 8.57999992 -1.09640002
-2.10170007 8.59169960 -1.09430003
-1.90209997 8.44029999 -1.03649998
-1.79890001 8.42059994 -1.04069996
-1.59150004 8.46520042 -0.80180001
-1.33659995 8.53479958 -0.95480001
-1.19140005 8.58450031 -0.89490002
-0.91600001 8.47270012 -0.81790000
-0.63209999 8.41520023 -1.15289998
-0.59880000 8.40009975 -1.15279996
-0.22390001 8.40019989 -1.29359996
-0.16990000 8.43840027 -1.26580000
0.00390000 8.55510044 -1.19369996
0.33000001 8.45069981 -1.20430005
0.43979999 8.58940029 -1.25730002
0.73799998 8.58679962 -1.32140005
0.80720001 8.42129993 -1.28699994
1.19630003 8.42339993 -1.23329997
1.32669997 8.54769993 -1.22049999
1.57079995 8.48359966 -1.16100001
1.78299999 8.43659973 -1.17050004
1.80560005 8.46129990 -1.17879999
2.15549994 8.58689976 -1.18040001
2.34290004 8.59060001 -1.19519997
2.59960008 8.46640015 -1.18130004
2.68930006 8.58390045 -1.19089997
2.85240006 8.58300018 -1.26370001
3.00160003 8.56919956 -1.15330005
3.37249994 8.55469990 -1.23909998
3.53130007 8.57079983 -1.33710003
3.67659998 8.58530045 -1.24670005
3.99760008 8.44789982 -1.16989994
4.12449980 8.40540028 -1.20620000
4.33500004 8.51420021 -1.19079995
4.56979990 8.42329979 -1.24549997
4.66900015 8.43130016 -1.16059995
4.86630011 8.47939968 -1.12070000
5.19430017 8.40170002 -1.10060000
5.22310019 8.40130043 -1.10420001
5.42170000 8.40750027 -1.09379995
5.79549980 8.46280003 -1.09309995
5.80530024 8.45499992 -1.09619999
6.17049980 8.56140041 -1.08599997
6.36549997 8.42619991 -1.10549998
6.41960001 8.42230034 -1.10959995
6.64410019 8.42840004 -0.99229997
6.88800001 8.48069954 -0.94559997
7.06449986 8.59549999 -0.91769999
7.38539982 8.48130035 -0.91890001
7.56050014 8.42000008 -0.97439998
7.62200022 8.48009968 -0.97109997
7.89620018 8.56089973 -0.92040002
8.18599987 8.59930038 -0.73530000
8.20460033 8.58710003 -0.73769999
8.56140041 8.51049995 -0.92259997
8.78509998 8.55659962 -0.93320000
8.89319992 8.59469986 -0.97409999
9.13959980 8.57050037 -1.27250004
9.29010010 8.45499992 -1.27390003
9.47560024 8.59230042 -1.33669996
9.60140038 8.45180035 -1.23899996
9.81610012 8.42210007 -1.16369998
10.17959976 8.41559982 -1.14260006
10.22570038 8.45149994 -1.13259995
10.57919979 8.44180012 -1.13629997
10.76970005 8.47609997 -1.20089996
10.94859982 8.48799992 -1.23989999
11.06760025 8.42450047 -1.25370002
11.20370007 8.59980011 -1.19079995
11.57100010 8.54090023 -1.23479998
11.74779987 8.59850025 -1.26279998
11.99880028 8.50030041 -1.29279995
12.17010021 8.55370045 -1.37220001
12.22990036 8.49549961 -1.36150002
12.41629982 8.43990040 -1.36549997
13.39630032 8.58539963 -0.96939999
13.44110012 8.58069992 -0.98659998
13.75599957 8.54979992 -0.85119998
13.97589970 8.48610020 -0.85839999
17.64419937 8.59210014 -1.05620003
17.99830055 8.52789974 -1.24800003
18.02379990 8.40590000 -1.30320001
18.39900017 8.55290031 -1.32780004
18.59070015 8.54230022 -1.36240005
18.60479927 8.59809971 -1.34720004
18.84530067 8.51410007 -1.32190001
19.05640030 8.40880013 -1.25520003
19.23710060 8.41390038 -1.18920004
19.49510002 8.40130043 -1.09959996
19.67650032 8.40690041 -1.06250000
19.82950020 8.40340042 -1.01380002
-14.18869972 8.70940018 -0.88150001
-13.84619999 8.71399975 -0.93580002
-13.79170036 8.70359993 -1.03139997
-13.53250027 8.78509998 -1.18210006
-13.27970028 8.76280022 -1.21159995
-13.08349991 8.75739956 -1.22000003
-12.98929977 8.60439968 -1.13479996
-12.60169983 8.79570007 -1.23880005
-12.55399990 8.77359962 -1.23769999
-12.20320034 8.70839977 -1.25320005
-12.17059994 8.63319969 -1.28470004
-11.98519993 8.60470009 -1.29180002
-11.74860001 8.70689964 -1.23090005
-11.56929970 8.62539959 -1.17499995
-11.25100040 8.60420036 -1.15390003
-11.00259972 8.63469982 -1.23689997
-10.89480019 8.78769970 -1.28110003
-10.78870010 8.68410015 -1.32280004
-10.51840019 8.76620007 -0.81529999
-10.34329987 8.77589989 -1.32410002
-9.60970020 8.68750000 -1.15849996
-9.56480026 8.60299969 -1.13049996
-9.27490044 8.65299988 -0.87840003
-9.01990032 8.79650021 -1.18449998
-8.97749996 8.68140030 -1.15419996
-8.79380035 8.79049969 -0.89240003
-8.45069981 8.79559994 -0.93120003
-8.14200020 8.60149956 -0.93049997
-7.42729998 8.61270046 -0.91570002
-7.20170021 8.78929996 -1.07729995
-7.11679983 8.74870014 -1.12460005
-6.86310005 8.77289963 -1.31869996
-6.61700010 8.75440025 -1.32620001
-6.56839991 8.78349972 -1.32470000
-6.31839991 8.61620045 -1.28960001
-6.19710016 8.76430035 -1.25030005
-5.85160017 8.73209953 -1.40460002
-5.77019978 8.65939999 -1.34060001
-5.55550003 8.79030037 -1.13139999
-5.20940018 8.65120029 -1.20109999
-5.03469992 8.71240044 -1.25929999
-4.94530010 8.74489975 -1.27310002
-4.76300001 8.65690041 -1.30309999
-4.44350004 8.71189976 -1.19980001
-4.21990013 8.63949966 -1.32430005
-4.19770002 8.64980030 -1.32679999
-3.84570003 8.68369961 -1.26100004
-3.60579991 8.74930000 -1.27139997
-3.57229996 8.77120018 -1.32350004
-3.36999989 8.79179955 -1.32539999
-3.17750001 8.65330029 -1.20959997
-2.99670005 8.77009964 -1.18889999
-2.76259995 8.75650024 -1.10549998
-2.55789995 8.78880024 -1.11070001
-2.28730011 8.71759987 -1.09529996
-2.10689998 8.62460041 -1.08800006
-1.97580004 8.69530010 -1.02269995
-1.79620004 8.79440022 -0.95080000
-1.58729994 8.78829956 -0.87029999
-1.24800003 8.66119957 -0.96960002
-1.10239995 8.61110020 -0.92710000
-0.97810000 8.78489971 -0.89649999
-0.64850003 8.78110027 -0.90259999
-0.43930000 8.76109982 -1.05830002
-0.33340001 8.63459969 -1.05359995
-0.10550000 8.70289993 -1.13660002
0.06460000 8.60089970 -1.22679996
0.36970001 8.79189968 -1.25489998
0.58020002 8.78090000 -1.31490004
0.71799999 8.79860020 -1.37539995
0.91619998 8.76669979 -1.23109996
1.00839996 8.76900005 -1.22239995
1.20829999 8.78390026 -1.21370006
1.40579998 8.62989998 -1.17050004
1.61549997 8.72649956 -1.19200003
1.85309994 8.75599957 -1.20309997
2.17129993 8.77359962 -1.20319998
2.36809993 8.70030022 -1.26090002
2.44210005 8.64039993 -1.31149995
2.65120006 8.76809978 -1.27509999
2.82500005 8.67720032 -1.25580001
3.00749993 8.65919971 -1.07729995
3.32049990 8.61789989 -1.23780000
3.53169990 8.61929989 -1.30280006
3.68589997 8.63819981 -1.21539998
3.85299993 8.78289986 -1.19749999
4.09439993 8.61030006 -1.17519999
4.33589983 8.60540009 -1.16489995
4.40600014 8.60429955 -1.16209996
4.60790014 8.62339973 -1.15230000
4.80130005 8.60140038 -1.11530006
5.12779999 8.67959976 -1.08870006
5.25899982 8.65859985 -1.07470000
5.57359982 8.66880035 -1.08679998
5.78999996 8.77799988 -1.11170006
5.91680002 8.72060013 -1.13300002
6.05070019 8.78429985 -1.11230004
6.27460003 8.64760017 -1.08050001
6.41750002 8.60459995 -0.99040002
6.61889982 8.60529995 -0.97240001
6.92449999 8.60449982 -0.88620001
7.14429998 8.64039993 -0.90930003
7.38990021 8.60649967 -0.92159998
7.42490005 8.67510033 -0.93510002
7.61350012 8.62419987 -0.86860001
7.88399982 8.79150009 -0.76249999
8.13840008 8.66450024 -0.75019997
8.32979965 8.79469967 -0.86009997
8.46879959 8.78579998 -0.96759999
8.67290020 8.76840019 -1.00070000
8.98820019 8.60099983 -1.18320000
9.07419968 8.79710007 -1.27020001
9.36760044 8.78839970 -1.24360001
9.44769955 8.67059994 -1.36880004
9.63700008 8.67189980 -1.19729996
9.84669971 8.65159988 -1.05030000
10.17580032 8.71829987 -1.18659997
10.30020046 8.63829994 -1.05719995
10.59490013 8.70730019 -1.06519997
10.73700047 8.66429996 -1.16180003
10.83370018 8.64529991 -1.23070002
11.19429970 8.61260033 -1.19200003
11.20380020 8.60179996 -1.18589997
11.59799957 8.72459984 -1.20869994
11.76360035 8.75710011 -1.29670000
11.98719978 8.76850033 -1.30540001
12.19550037 8.62689972 -1.34379995
12.37930012 8.79059982 -1.37240005
12.52540016 8.74969959 -1.37629998
12.60770035 8.72500038 -1.35399997
13.17049980 8.79669952 -0.99900001
13.52729988 8.71990013 -1.02310002
13.73239994 8.64039993 -0.85879999
13.86250019 8.63840008 -0.88059998
17.66340065 8.60379982 -1.06470001
18.37849998 8.76140022 -1.31509995
18.52230072 8.60130024 -1.34560001
18.64469910 8.60039997 -1.38119996
18.80120087 8.60299969 -1.28840005
19.03840065 8.72620010 -1.20589995
19.20140076 8.75899982 -1.14839995
19.40519905 8.79080009 -1.03380001
19.67270088 8.77079964 -1.00870001
-13.82970047 8.99610043 -1.21790004
-13.67420006 8.94950008 -1.33889997
-13.54459953 8.87609959 -1.32159996
-13.35149956 8.80830002 -1.21700001
-13.02989960 8.98810005 -1.20369995
-12.84179974 8.94960022 -1.24740005
-12.60280037 8.85270023 -1.23679996
-12.58139992 8.80710030 -1.23259997
-12.29199982 8.84969997 -1.23360002
-12.12160015 8.99460030 -1.24450004
-11.80510044 8.84650040 -1.23940003
-11.71510029 8.80360031 -1.20299995
-11.53240013 8.80140018 -1.16320002
-11.26480007 8.97439957 -1.13880002
-11.16320038 8.99759960 -1.21519995
-10.88580036 8.85949993 -1.20550001
-10.53260040 8.82059956 -1.06490004
-9.60340023 8.80589962 -0.94489998
-9.45709991 8.87469959 -0.93500000
-9.21990013 8.97749996 -0.97759998
-9.06210041 8.98989964 -1.18480003
-8.98950005 8.83180046 -1.14880002
-7.20160007 8.91880035 -1.12170005
-7.03020000 8.88220024 -1.15199995
-6.89260006 8.80179977 -1.31760001
-6.78420019 8.93249989 -1.29879999
-6.47879982 8.87749958 -1.37059999
-6.38219976 8.81169987 -1.24249995
-6.15199995 8.82919979 -1.28040004
-5.88450003 8.82209969 -1.27900004
-5.72539997 8.81289959 -1.31200004
-5.57770014 8.94830036 -1.30480003
-5.23089981 8.89319992 -1.18369997
-5.00290012 8.89120007 -1.22619998
-4.90850019 8.98999977 -1.29540002
-4.77209997 8.98369980 -1.31939995
-4.57040024 8.83040047 -1.23720002
-4.38910007 8.99199963 -1.21679997
-4.14480019 8.84130001 -1.19459999
-3.81690001 8.86880016 -1.05069995
-3.60509992 8.88799953 -1.25899994
-3.51650000 8.98600006 -1.33930004
-3.39759994 8.93900013 -1.33309996
-3.18980002 8.92940044 -1.29219997
-2.98900008 8.87800026 -1.15769994
-2.73280001 8.91320038 -1.13090003
-2.54209995 8.83769989 -1.10220003
-2.31890011 8.85680008 -1.06299996
-2.11509991 8.83030033 -1.15230000
-1.88619995 8.81079960 -1.05690002
-1.68799996 8.99969959 -1.02209997
-1.49820006 8.92549992 -1.20169997
-1.39940000 8.98079967 -1.18640006
-1.13600004 8.88570023 -1.28260005
-0.97719997 8.94279957 -1.23399997
-0.79320002 8.96049976 -1.14059997
-0.40549999 8.98419952 -1.10769999
-0.27270001 8.87020016 -0.95010000
-0.00720000 8.81070042 -1.10080004
0.13959999 8.84840012 -1.17890000
0.26440001 8.98499966 -1.32840002
0.50370002 8.81169987 -1.28989995
0.73659998 8.89220047 -1.39030004
0.80170000 8.99950027 -1.32309997
1.10679996 8.85379982 -1.25370002
1.30499995 8.86170006 -1.22909999
1.40330005 8.85079956 -1.28840005
1.74249995 8.85249996 -1.22189999
1.81040001 8.81659985 -1.19149995
2.18869996 8.80249977 -1.17960000
2.20009995 8.89379978 -1.17089999
2.57590008 8.80179977 -1.23889995
2.66860008 8.81229973 -1.24039996
2.84050012 8.81270027 -1.18069994
3.01889992 8.88910007 -1.01119995
3.29949999 8.97669983 -1.21990001
3.47460008 8.81079960 -1.29400003
3.68549991 8.81200027 -1.12140000
3.84840012 8.82380009 -1.17240000
4.00320005 8.82610035 -1.15380001
4.36469984 8.81389999 -1.11249995
4.47760010 8.81340027 -1.13660002
4.65579987 8.89200020 -1.15120006
4.80019999 8.99969959 -1.12759995
5.12389994 8.98779964 -1.10380006
5.36539984 8.99720001 -1.10720003
5.59980011 8.94869995 -1.11020005
5.79020023 8.93070030 -1.12269998
5.91190004 8.91259956 -1.15480006
6.07320023 8.97780037 -1.14030004
6.20450020 8.98620033 -1.06299996
6.43289995 8.97529984 -0.98769999
6.61089993 8.84939957 -0.90050000
6.96659994 8.95370007 -0.84630001
7.16340017 8.86950016 -0.86360002
7.39960003 8.94169998 -0.80479997
7.57880020 8.85219955 -0.85750002
7.62389994 8.83590031 -0.85860002
7.86429977 8.80669975 -0.76150000
8.14299965 8.97210026 -0.77109998
8.38440037 8.99650002 -0.95330000
8.52630043 8.96679974 -0.96859998
8.61299992 8.88150024 -1.03509998
8.99429989 8.98999977 -1.22730005
9.10099983 8.82170010 -1.26450002
9.24219990 8.95390034 -1.28320003
9.47690010 8.87749958 -1.20330000
9.62759972 8.85529995 -1.14730000
9.80060005 8.85140038 -1.02909994
10.01399994 8.93579960 -1.04449999
10.33380032 8.99639988 -1.01709998
10.49849987 8.96510029 -0.99550003
10.75409985 8.81529999 -1.16069996
10.82400036 8.86600018 -1.21990001
11.15200043 8.91549969 -1.20809996
11.21020031 8.85109997 -1.19790006
11.51430035 8.98029995 -1.25320005
11.78890038 8.84329987 -1.29089999
11.85060024 8.92770004 -1.31029999
12.10949993 8.89850044 -1.33060002
12.38220024 8.81750011 -1.37829995
12.46240044 8.92800045 -1.38460004
12.61250019 8.88370037 -1.37549996
12.80410004 8.89490032 -1.30309999
13.13210011 8.99470043 -1.11889994
13.27280045 8.93140030 -1.05910003
13.58390045 8.81140041 -0.98689997
18.49519920 8.82789993 -1.33290005
18.61170006 8.83220005 -1.31190002
18.81660080 8.90359974 -1.27390003
19.00230026 8.87909985 -1.20019996
19.20719910 8.96380043 -1.09179997
19.42090034 8.83160019 -1.09150004
19.61720085 8.92430019 -1.03509998
-13.98330021 9.10890007 -1.29690003
-13.68729973 9.01280022 -1.29639995
-13.51080036 9.03020000 -1.25240004
-13.26249981 9.11670017 -1.26040006
-13.06000042 9.05889988 -1.26839995
-12.95919991 9.08530045 -1.25670004
-12.77219963 9.04399967 -1.21550000
-12.44449997 9.01650047 -1.21980000
-12.23069954 9.10109997 -1.23969996
-12.18630028 9.06560040 -1.23730004
-11.98040009 9.00829983 -1.19959998
-11.74040031 9.07390022 -1.15760005
-11.40330029 9.05290031 -1.12520003
-11.22360039 9.11359978 -1.15439999
-11.17140007 9.01229954 -1.21879995
-10.99629974 9.14900017 -1.12600005
-9.20100021 9.15789986 -1.10319996
-9.06630039 9.00020027 -1.17130005
-8.99769974 9.02729988 -1.11860001
-7.28210020 9.17420006 -1.04480004
-7.04209995 9.08679962 -1.18410003
-6.83760023 9.00230026 -1.22549999
-6.78000021 9.00699997 -1.28620005
-6.41629982 9.02740002 -1.32830000
-6.35379982 9.17739964 -1.27390003
-6.09520006 9.04329967 -1.23109996
-5.99970007 9.19540024 -1.16390002
-5.67210007 9.03460026 -1.26719999
-5.55919981 9.01570034 -1.28419995
-5.31860018 9.16759968 -1.26989996
-5.01450014 9.08510017 -1.24989998
-4.89470005 9.05080032 -1.28030002
-4.76730013 9.04109955 -1.30519998
-4.59149981 9.09130001 -1.27129996
-4.24830008 9.18169975 -1.25020003
-4.15969992 9.06550026 -1.17270005
-3.99760008 9.10840034 -1.14460003
-3.60630012 9.13819981 -1.27660000
-3.51090002 9.01459980 -1.33599997
-3.30130005 9.02350044 -1.31009996
-3.19959998 9.01210022 -1.26419997
-2.95199990 9.00839996 -1.13080001
-2.62220001 9.01410007 -1.11819994
-2.59669995 9.01319981 -1.09720004
-2.35920000 9.13869953 -1.08930004
-2.10899997 9.17529964 -1.13460004
-1.99559999 9.02550030 -1.13230002
-1.75600004 9.19979954 -1.08360004
-1.41729999 9.00129986 -1.19270003
-1.33360004 9.15079975 -1.24059999
-1.15050006 9.10840034 -1.22520006
-0.87449998 9.13799953 -1.22329998
-0.68989998 9.19789982 -1.20840001
-0.53609997 9.04380035 -1.12409997
-0.23170000 9.09879971 -1.18780005
-0.18799999 9.11639977 -1.17289996
0.19410001 9.12320042 -1.18239999
0.29220000 9.00650024 -1.33770001
0.59899998 9.05550003 -1.28209996
0.77579999 9.09119987 -1.39320004
0.80500001 9.16460037 -1.37600005
1.01080000 9.16679955 -1.32980001
1.22990000 9.12709999 -1.23920000
1.47019994 9.15610027 -1.20350003
1.61290002 9.03129959 -1.13960004
1.90380001 9.19799995 -1.18959999
2.00209999 9.18000031 -1.22119999
2.27200007 9.00090027 -1.11049998
2.59139991 9.00150013 -1.09050000
2.61509991 9.00249958 -1.19050002
2.85200000 9.03209972 -1.09759998
3.04530001 9.00500011 -0.94199997
3.27090001 9.00520039 -1.24549997
3.43930006 9.02120018 -1.13639998
3.65070009 9.08300018 -1.01769996
3.97560000 9.01229954 -1.14139998
4.00649977 9.00829983 -1.12720001
4.39680004 9.19200039 -1.14440000
4.45830011 9.15880013 -1.16030002
4.63360023 9.13529968 -1.14240003
4.80399990 9.02799988 -1.13310003
5.00880003 9.18710041 -1.12189996
5.32060003 9.19659996 -1.11730003
5.50619984 9.14960003 -1.12199998
5.76119995 9.09340000 -1.13530004
5.89639997 9.19270039 -1.18589997
6.09359980 9.07260036 -1.15170002
6.20679998 9.05970001 -1.06620002
6.44530010 9.17370033 -1.18200004
6.64699984 9.05729961 -0.89200002
6.98309994 9.19979954 -0.85299999
7.19299984 9.01799965 -0.90219998
7.25439978 9.19799995 -1.11319995
7.52530003 9.00539970 -0.78850001
7.59999990 9.10830021 -0.77999997
7.93429995 9.00790024 -0.73799998
8.18439960 9.15649986 -0.79229999
8.34500027 9.08609962 -0.98820001
8.49909973 9.10949993 -1.10430002
8.76239967 9.15979958 -1.11689997
8.99600029 9.19029999 -1.24010003
9.06709957 9.03439999 -1.25380003
9.27309990 9.00570011 -1.24039996
9.59140015 9.00800037 -1.10300004
9.61719990 9.00199986 -1.09640002
9.87839985 9.11229992 -1.05229998
10.19120026 9.18859959 -0.97979999
10.37250042 9.18850040 -1.02919996
10.40110016 9.04259968 -0.99730003
10.74090004 9.09319973 -1.09739995
10.96940041 9.01049995 -1.09169996
11.14760017 9.16419983 -1.15219998
11.37629986 9.11870003 -1.05579996
11.59910011 9.01080036 -1.19319999
11.73760033 9.19659996 -1.26800001
11.88029957 9.02779961 -1.31009996
12.19499969 9.15760040 -1.33930004
12.25879955 9.18710041 -1.36029994
12.59519958 9.02519989 -1.27100003
12.74209976 9.01430035 -1.37230003
12.80770016 9.11960030 -1.28760004
13.14770031 9.02620029 -1.13460004
13.27120018 9.17570019 -1.10539997
13.41530037 9.01770020 -1.01789999
18.39559937 9.07970047 -1.31229997
18.53739929 9.18570042 -1.33659995
18.62290001 9.19979954 -1.29900002
18.95800018 9.10459995 -1.21630001
19.02210045 9.18669987 -1.20729995
19.22069931 9.16779995 -1.14219999
19.41469955 9.07530022 -1.08140004
19.60569954 9.00679970 -1.05060005
-13.87679958 9.35569954 -1.25269997
-13.76119995 9.29529953 -1.23660004
-13.41320038 9.20610046 -1.20449996
-13.24059963 9.31910038 -1.22950006
-13.11130047 9.24499989 -1.24800003
-12.91940022 9.23110008 -1.21969998
-12.66919994 9.36410046 -1.12539995
-12.59119987 9.39869976 -1.22290003
-12.35470009 9.25860023 -1.23290002
-12.13599968 9.21660042 -1.15260005
-11.88799953 9.37409973 -1.09230006
-11.66740036 9.39169979 -1.13660002
-11.51080036 9.35929966 -1.15050006
-11.36040020 9.23519993 -1.11740005
-11.10529995 9.21739960 -1.17900002
-7.22629976 9.28989983 -1.14400005
-7.15159988 9.21759987 -1.26349998
-6.84229994 9.20950031 -1.14499998
-6.63040018 9.23999977 -1.24339998
-6.41079998 9.22319984 -1.23269999
-6.33879995 9.22379971 -1.27900004
-6.07159996 9.27340031 -1.21290004
-5.80070019 9.31659985 -1.19799995
-5.77720022 9.28279972 -1.26629996
-5.47609997 9.22360039 -1.24310005
-5.30399990 9.24230003 -1.25530005
-5.19929981 9.24510002 -1.23329997
-4.91690016 9.22539997 -1.28929996
-4.79869986 9.32649994 -1.27040005
-4.51900005 9.30389977 -1.24129999
-4.30579996 9.32600021 -1.27269995
-4.08549976 9.25010014 -1.29020000
-3.93460011 9.37530041 -1.09870005
-3.68610001 9.20409966 -1.08019996
-3.41339993 9.21580029 -1.30200005
-3.39429998 9.35610008 -1.29270005
-3.19959998 9.34160042 -1.24140000
-2.91450000 9.29319954 -1.16100001
-2.70630002 9.23390007 -1.09319997
-2.57130003 9.35050011 -1.07490003
-2.25209999 9.23439980 -1.11530006
-2.14980006 9.33160019 -1.18030000
-1.81739998 9.25189972 -1.05809999
-1.65660000 9.29049969 -1.15180004
-1.54180002 9.32530022 -1.15320003
-1.22850001 9.37329960 -1.28520000
-1.15409994 9.27250004 -1.27569997
-0.93650001 9.36450005 -1.25510001
-0.78899997 9.21380043 -1.19640005
-0.54329997 9.26220036 -1.25539994
-0.38640001 9.32069969 -1.19579995
-0.15040000 9.38210011 -1.17820001
0.15520000 9.38109970 -1.22409999
0.20890000 9.29199982 -1.24070001
0.45770001 9.34480000 -1.27180004
0.76920003 9.20400047 -1.36960006
0.80449998 9.21860027 -1.38399994
1.03129995 9.37110043 -1.34909999
1.23559999 9.39830017 -1.21689999
1.41240001 9.21930027 -1.19340003
1.73880005 9.38259983 -1.18540001
1.92460001 9.21889973 -1.16559994
2.07529998 9.26939964 -1.14800000
2.32550001 9.39859962 -1.15279996
2.55100012 9.38969994 -1.17250001
2.64989996 9.30910015 -1.07449996
2.84050012 9.20720005 -1.17229998
3.15849996 9.22560024 -1.00279999
3.36960006 9.20670033 -1.03719997
3.59030008 9.29720020 -1.05850005
3.62730002 9.36530018 -1.04719996
3.98720002 9.20769978 -1.10520005
4.03690004 9.20460033 -1.09150004
4.23839998 9.22640038 -1.14080000
4.41309977 9.21770000 -1.13180006
4.62099981 9.34420013 -1.13520002
4.93690014 9.29580021 -1.12199998
5.09429979 9.35809994 -1.13139999
5.35129976 9.35350037 -1.13110006
5.43750000 9.38389969 -1.13269997
5.74900007 9.35439968 -1.14419997
5.88749981 9.39960003 -1.18270004
6.01660013 9.36019993 -1.16439998
6.39190006 9.21230030 -1.17439997
6.40369987 9.21420002 -1.17540002
6.61310005 9.37829971 -1.00360000
6.82019997 9.20069981 -1.01320004
7.19099998 9.34930038 -0.87550002
7.39120007 9.22649956 -0.86589998
7.58540010 9.25179958 -0.70859998
7.74170017 9.20619965 -0.74690002
7.92220020 9.34449959 -1.03520000
8.15639973 9.39869976 -1.02929997
8.23750019 9.27670002 -1.04020000
8.59529972 9.37759972 -1.10039997
8.78849983 9.38679981 -1.16649997
8.80119991 9.25590038 -1.22010005
9.02239990 9.26799965 -1.13970006
9.20040035 9.20520020 -1.09870005
9.40260029 9.26669979 -1.09050000
9.63580036 9.22599983 -1.07690001
9.86810017 9.27929974 -1.06019998
10.03859997 9.29090023 -1.00730002
10.36349964 9.26490021 -1.04579997
10.45149994 9.39939976 -0.88069999
10.72430038 9.29119968 -1.12409997
10.95129967 9.38790035 -0.71560001
11.15060043 9.28180027 -1.17620003
11.29640007 9.20720005 -0.82990003
11.46700001 9.22859955 -0.86870003
11.72990036 9.37730026 -1.30840003
11.90530014 9.24680042 -1.30900002
12.19600010 9.33800030 -1.34710002
12.27960014 9.37269974 -1.36409998
12.40419960 9.32279968 -1.30659997
12.72970009 9.29870033 -1.32459998
12.80399990 9.23270035 -1.26730001
13.08950043 9.36929989 -1.09770000
13.35309982 9.25059986 -1.09979999
13.58769989 9.29500008 -1.05809999
13.67430019 9.22970009 -0.94290000
18.38780022 9.23260021 -1.28569996
18.54780006 9.23040009 -1.34200001
18.62470055 9.33660030 -1.32229996
18.82670021 9.33629990 -1.26909995
19.04710007 9.39589977 -1.22599995
19.25539970 9.25409985 -1.18820000
-14.02690029 9.48320007 -1.14960003
-13.91629982 9.47010040 -1.25820005
-13.67580032 9.43620014 -1.15540004
-13.59990025 9.45989990 -1.11189997
-13.25419998 9.47459984 -1.17250001
-13.13169956 9.51410007 -1.17299998
-12.92959976 9.59280014 -1.15409994
-12.72080040 9.40439987 -1.12210000
-12.58570004 9.48099995 -1.17060006
-12.23159981 9.47550011 -1.13940001
-12.13720036 9.44760036 -1.08290005
-11.93529987 9.42389965 -1.10010004
-11.68929958 9.41590023 -1.13839996
-11.59710026 9.40060043 -1.06910002
-11.30179977 9.41880035 -1.06200004
-9.28450012 9.44419956 -1.24860001
-8.07100010 9.51379967 -1.17069995
-7.49980021 9.54889965 -1.09050000
-7.20489979 9.41040039 -0.88849998
-7.14400005 9.58940029 -1.24769998
-6.90170002 9.54069996 -1.16299999
-6.79549980 9.59249973 -1.27380002
-6.44570017 9.45569992 -1.16059995
-6.23330021 9.59599972 -1.39359999
-6.18410015 9.58279991 -1.34899998
-5.83949995 9.59879971 -1.33850002
-5.78730011 9.58889961 -1.38170004
-5.44500017 9.40810013 -1.16849995
-5.22669983 9.41440010 -1.22520006
-5.14890003 9.53289986 -1.25119996
-4.87379980 9.57540035 -1.28410006
-4.63719988 9.52519989 -1.29359996
-4.47160006 9.49269962 -1.24979997
-4.23350000 9.56449986 -1.25479996
-4.16179991 9.59790039 -1.26259995
-3.95589995 9.48429966 -1.21109998
-3.79360008 9.56879997 -1.15219998
-3.54439998 9.57530022 -1.28320003
-3.21460009 9.40520000 -1.22880006
-3.09080005 9.45930004 -1.17019999
-2.92030001 9.48919964 -1.15230000
-2.68379998 9.56760025 -1.09370005
-2.59520006 9.56989956 -1.11570001
-2.20090008 9.50909996 -1.16020000
-2.16619992 9.43379974 -1.17560005
-1.92369998 9.52089977 -0.99070001
-1.73199999 9.44970036 -1.01890004
-1.44340003 9.41539955 -1.17729998
-1.39100003 9.44719982 -1.17320001
-1.13240004 9.40330029 -1.25820005
-0.82450002 9.42300034 -1.24030006
-0.70749998 9.53890038 -1.22839999
-0.58069998 9.57569981 -1.17750001
-0.31889999 9.58500004 -1.26160002
-0.18500000 9.57549953 -1.18069994
0.13570000 9.41520023 -1.20729995
0.37590000 9.44369984 -1.17270005
0.42649999 9.57279968 -1.42250001
0.72210002 9.45750046 -1.40190005
0.88139999 9.58349991 -1.38900006
1.16810000 9.45940018 -1.35870004
1.20159996 9.58530045 -1.26769996
1.42130005 9.58010006 -1.13329995
1.76370001 9.40869999 -1.17569995
1.85669994 9.56280041 -1.21780002
2.15409994 9.45020008 -1.19260001
2.24250007 9.41569996 -1.18809998
2.44869995 9.46070004 -1.17690003
2.63980007 9.42529964 -1.14129996
2.88610005 9.47679996 -1.08679998
3.02670002 9.40139961 -1.09819996
3.35800004 9.56099987 -1.06120002
3.59590006 9.40540028 -1.05110002
3.61129999 9.40340042 -1.04299998
3.85279989 9.45720005 -1.02699995
4.19680023 9.44320011 -1.12210000
4.31150007 9.41469955 -1.08650005
4.58790016 9.52709961 -1.13339996
4.61420012 9.52060032 -1.14880002
4.95249987 9.59920025 -1.14999998
5.15859985 9.48040009 -1.20159996
5.20240021 9.47259998 -1.19540000
5.50010014 9.45979977 -1.13730001
5.79820013 9.46930027 -1.16380000
5.91580009 9.40209961 -1.19330001
6.11310005 9.40919971 -1.17460001
6.35570002 9.49370003 -1.12249994
6.40059996 9.45650005 -1.06659997
6.60570002 9.47809982 -1.01940000
6.93319988 9.58800030 -0.98150003
7.08869982 9.59119987 -1.01520002
7.38590002 9.43830013 -0.98390001
7.59730005 9.59739971 -1.05620003
7.68300009 9.59290028 -1.09930003
7.83029985 9.49839973 -1.09010005
8.14420033 9.42029953 -1.03100002
8.25409985 9.59420013 -1.00510001
8.57450008 9.51570034 -1.23259997
8.77190018 9.42469978 -1.18040001
8.83880043 9.49489975 -1.18320000
9.07870007 9.48960018 -1.11860001
9.30459976 9.46129990 -1.01329994
9.42459965 9.50489998 -0.99129999
9.66520023 9.40390015 -0.83420002
9.94229984 9.42300034 -0.98799998
10.02789974 9.43540001 -0.91310000
10.36229992 9.52099991 -0.88599998
10.40260029 9.46380043 -0.88910002
10.78880024 9.41810036 -0.74330002
10.83889961 9.49779987 -0.71670002
11.11639977 9.41880035 -0.71280003
11.21730042 9.43179989 -0.78189999
11.51939964 9.46829987 -0.86799997
11.79909992 9.53129959 -1.26600003
11.99380016 9.57979965 -1.34879994
12.01299953 9.47490025 -1.32319999
12.29829979 9.40429974 -1.38180006
12.43959999 9.48180008 -1.35780001
12.64560032 9.58419991 -1.22490001
12.97859955 9.45209980 -1.16439998
13.00699997 9.51159954 -1.14559996
13.23149967 9.50850010 -1.12080002
13.46720028 9.58080006 -1.01440001
18.57259941 9.40839958 -1.30410004
18.67020035 9.41800022 -1.33000004
18.80139923 9.52120018 -1.30429995
19.00209999 9.54559994 -1.26750004
-18.20030022 9.60179996 -0.40220001
-18.01530075 9.73789978 -0.24120000
-14.20660019 9.74890041 -1.00720000
-14.11060047 9.78629971 -1.16970003
-13.91469955 9.70800018 -1.13440001
-13.67259979 9.62030029 -0.87830001
-13.51329994 9.67700005 -1.17910004
-13.37430000 9.60649967 -1.13970006
-13.15849972 9.63300037 -1.09420002
-12.93850040 9.60739994 -1.16170001
-12.65380001 9.62100029 -1.16680002
-12.53170013 9.69559956 -1.06939995
-12.23130035 9.72579956 -0.93059999
-12.12609959 9.69050026 -0.93730003
-11.93760014 9.61240005 -1.09739995
-11.77420044 9.61310005 -1.06070006
-11.56879997 9.65550041 -0.94720000
-8.27630043 9.79829979 -1.19860005
-8.09780025 9.73579979 -1.19770002
-7.86770010 9.69239998 -1.06719995
-7.73999977 9.73429966 -1.10000002
-7.44000006 9.79279995 -1.26750004
-7.36759996 9.71020031 -1.12750006
-7.04879999 9.73849964 -1.24370003
-6.84390020 9.65760040 -1.27999997
-6.69729996 9.65530014 -1.26989996
-6.59009981 9.69320011 -1.25199997
-6.20499992 9.65340042 -1.37639999
-6.14580011 9.64729977 -1.32949996
-5.83080006 9.63430023 -1.32879996
-5.77559996 9.60060024 -1.37390006
-5.42679977 9.79940033 -1.18210006
-5.21850014 9.62769985 -1.17739999
-5.04969978 9.76080036 -1.28059995
-4.99319983 9.72519970 -1.28320003
-4.67360020 9.71700001 -1.26629996
-4.48899984 9.65559959 -1.27419996
-4.21019983 9.62399960 -1.24930000
-4.15770006 9.61040020 -1.26279998
-3.94180012 9.75220013 -1.23490000
-3.76670003 9.71210003 -1.22029996
-3.53670001 9.60330009 -1.26859999
-3.22169995 9.72099972 -0.97479999
-3.14759994 9.74310017 -1.15520000
-2.84190011 9.64260006 -1.16229999
-2.70050001 9.75349998 -1.19180000
-2.59619999 9.74779987 -1.15649998
-2.31089997 9.77620029 -1.18929994
-2.19530010 9.66520023 -1.13650000
-1.96159995 9.61159992 -0.97710001
-1.66509998 9.68480015 -0.96539998
-1.45299995 9.66339970 -1.20169997
-1.34089994 9.79160023 -1.18910003
-1.04999995 9.67319965 -1.20920002
-0.99110001 9.64990044 -1.24710000
-0.62790000 9.78339958 -1.27839994
-0.53930002 9.75510025 -1.25730002
-0.33100000 9.74499989 -1.31640005
-0.03030000 9.67850018 -1.27820003
0.17070000 9.74629974 -1.26849997
0.22720000 9.68640041 -1.23860002
0.57309997 9.68959999 -1.39100003
0.69279999 9.77219963 -1.40750003
0.83429998 9.60410023 -1.38820004
1.15300000 9.66289997 -1.34440005
1.23459995 9.69460011 -1.32260001
1.59739995 9.79440022 -1.16810000
1.79600000 9.79030037 -1.19760001
1.86819994 9.64920044 -1.22029996
2.16659999 9.69620037 -1.19529998
2.36159992 9.60999966 -1.18060005
2.46779990 9.65400028 -1.16810000
2.64750004 9.68809986 -1.10459995
2.98900008 9.73970032 -1.08329999
3.17490005 9.77079964 -1.08580005
3.35980010 9.60939980 -1.12170005
3.50530005 9.72560024 -1.11450005
3.63100004 9.70390034 -1.09570003
3.85829997 9.63420010 -1.06400001
4.15759993 9.77320004 -1.07840002
4.38329983 9.76790047 -1.15799999
4.43310022 9.79240036 -1.18250000
4.60459995 9.71780014 -1.16569996
4.84910011 9.66839981 -1.15939999
5.15670013 9.61310005 -1.12339997
5.34480000 9.71350002 -1.12189996
5.57789993 9.65750027 -1.12320006
5.75349998 9.79599953 -1.13960004
5.91050005 9.67689991 -1.15660000
6.00430012 9.61240005 -1.15320003
6.29440022 9.65289974 -1.11530006
6.41379976 9.77120018 -1.09850001
6.76280022 9.77340031 -1.07340002
6.99069977 9.69320011 -1.08080006
7.03439999 9.69239998 -1.08969998
7.38259983 9.78540039 -1.09399998
7.45539999 9.75990009 -1.11710000
7.77540016 9.69400024 -1.12870002
7.92059994 9.69680023 -1.14590001
8.03310013 9.79619980 -1.08029997
8.22229958 9.64239979 -1.05369997
8.42700005 9.60190010 -1.07760000
8.64900017 9.79319954 -1.15139997
8.80119991 9.66510010 -1.10339999
9.08440018 9.72169971 -0.90899998
9.28779984 9.60750008 -0.93290001
9.50039959 9.73789978 -0.83080000
9.69820023 9.69229984 -0.79200000
9.86970043 9.65960026 -0.81269997
10.13829994 9.74499989 -0.62019998
10.35869980 9.63990021 -0.89440000
10.54399967 9.65069962 -0.84219998
10.61550045 9.63829994 -0.86390001
10.82559967 9.74919987 -0.77590001
11.02009964 9.75399971 -0.74290001
11.39159966 9.64400005 -0.69529998
11.58259964 9.66679955 -0.89209998
11.71280003 9.64229965 -1.11210001
11.97690010 9.68480015 -1.26940000
12.14610004 9.68659973 -1.14069998
12.29549980 9.61450005 -1.26779997
12.48690033 9.60190010 -1.38870001
12.64070034 9.74860001 -1.28680003
12.80519962 9.76749992 -1.12039995
13.18869972 9.64239979 -1.09449995
13.38379955 9.63959980 -1.05410004
13.49009991 9.78649998 -1.07770002
18.67830086 9.62450027 -1.27909994
-14.62349987 9.97819996 -0.94330001
-14.40429974 9.89050007 -0.96429998
-14.20149994 9.97299957 -1.07229996
-14.13459969 9.88109970 -1.18780005
-13.87259960 9.88939953 -1.05089998
-13.71770000 9.84640026 -1.07029998
-13.26860046 9.85859966 -1.08840001
-13.06589985 9.91499996 -0.94099998
-12.87699986 9.97080040 -1.06120002
-12.67980003 9.86620045 -0.89780003
-12.51539993 9.89729977 -0.83160001
-12.20040035 9.88469982 -0.90789998
-12.07069969 9.98289967 -1.06560004
-11.95059967 9.83430004 -1.03120005
-11.79479980 9.90670013 -0.93900001
-8.46240044 9.95269966 -1.07360005
-8.23900032 9.93210030 -1.21389997
-8.07409954 9.93850040 -1.25730002
-7.88420010 9.88409996 -1.27450001
-7.79069996 9.91940022 -1.27479994
-7.56589985 9.95230007 -1.27660000
-7.21680021 9.92140007 -1.29320002
-7.17939997 9.88490009 -1.30159998
-6.82009983 9.99409962 -1.30260003
-6.77990007 9.98610020 -1.28970003
-6.57840014 9.88329983 -1.23989999
-6.36810017 9.82260036 -1.11360002
-6.12279987 9.82890034 -1.36530006
-5.82180023 9.82279968 -1.04299998
-5.71509981 9.80900002 -1.31110001
-5.58010006 9.93070030 -1.21130002
-5.36499977 9.96549988 -1.26549995
-5.02190018 9.84570026 -1.27030003
-4.91169977 9.99899960 -1.28709996
-4.72599983 9.87639999 -1.26020002
-4.51849985 9.84630013 -1.24409997
-4.38149977 9.98680019 -1.23360002
-4.06209993 9.81029987 -1.23899996
-3.91520000 9.84319973 -1.22210002
-3.64870000 9.80949974 -1.21870005
-3.41339993 9.91720009 -1.19719994
-3.20250010 9.86190033 -1.20519996
-3.19899988 9.87460041 -1.20760000
-2.86439991 9.94970036 -1.14460003
-2.71469998 9.80010033 -1.17939997
-2.57040000 9.87670040 -1.20350003
-2.31750011 9.85569954 -1.18729997
-2.19230008 9.82929993 -0.96210003
-1.92390001 9.81480026 -0.97829998
-1.60070002 9.99320030 -1.03079998
-1.41090000 9.85289955 -1.23380005
-1.39100003 9.84090042 -1.22150004
-1.15600002 9.92310047 -1.20140004
-0.96109998 9.99730015 -1.25000000
-0.72170001 9.97789955 -1.26830006
-0.55879998 9.83390045 -1.28659999
-0.25850001 9.83950043 -1.32190001
-0.12110000 9.94180012 -1.32239997
0.13220000 9.84270000 -1.25919998
0.39620000 9.86159992 -1.32229996
0.54079998 9.92770004 -1.41040003
0.61650002 9.84080029 -1.40649998
0.90890002 9.91600037 -1.36590004
1.06690001 9.82489967 -1.30280006
1.20620000 9.80130005 -1.28410006
1.41840005 9.99320030 -1.23740005
1.79299998 9.91230011 -1.19379997
1.91989994 9.89929962 -1.20690000
2.19930005 9.94509983 -1.17869997
2.30730009 9.99890041 -1.18110001
2.50259995 9.80840015 -1.19819999
2.61400008 9.98869991 -1.14769995
2.86630011 9.94919968 -1.14219999
3.05690002 9.98439980 -1.12570000
3.35409999 9.96990013 -1.12629998
3.41739988 9.87609959 -1.11539996
3.64400005 9.99209976 -1.08829999
3.94020009 9.99870014 -1.14129996
4.19880009 9.95979977 -1.17009997
4.37879992 9.95559978 -1.22379994
4.48169994 9.99790001 -1.21870005
4.60519981 9.96269989 -1.16869998
4.82140017 9.99339962 -1.14180005
5.19990015 9.82120037 -1.10500002
5.38549995 9.91849995 -1.11380005
5.59730005 9.93210030 -1.13259995
5.78240013 9.89830017 -1.14139998
5.93009996 9.88070011 -1.15079999
6.00279999 9.99950027 -1.13320005
6.22109985 9.80519962 -1.10469997
6.56090021 9.98029995 -1.09500003
6.65490007 9.91279984 -1.07690001
6.99650002 9.99800014 -1.09800005
7.18389988 9.93439960 -1.12419999
7.24060011 9.90769958 -1.12199998
7.59049988 9.97319984 -1.15719998
7.62949991 9.97760010 -1.15059996
7.94229984 9.93179989 -1.15830004
8.07289982 9.93239975 -1.10780001
8.37539959 9.96510029 -1.06309998
8.55599976 9.80539989 -1.11020005
8.68630028 9.95409966 -1.17480004
8.90299988 9.85239983 -1.02849996
9.14449978 9.80210018 -0.86729997
9.28719997 9.82629967 -0.87470001
9.59449959 9.80869961 -0.80360001
9.79100037 9.89770031 -0.80409998
9.95059967 9.94740009 -0.79729998
10.00329971 9.93990040 -0.80299997
10.38790035 9.89750004 -0.75150001
10.40649986 9.80469990 -0.81400001
10.62819958 9.95600033 -0.73089999
10.99899960 9.81309986 -0.73640001
11.00209999 9.81550026 -0.73680001
11.43540001 9.87349987 -0.76179999
12.03960037 9.87849998 -1.10290003
12.39260006 9.82989979 -1.20860004
12.40439987 9.80760002 -1.25790000
12.63220024 9.80920029 -1.04100001
12.87040043 9.96059990 -1.15649998
13.05329990 9.80160046 -1.00189996
13.29059982 9.80430031 -1.05540001
13.51640034 9.84039974 -1.08669996
-14.69979954 10.04300022 -0.96069998
-14.45419979 10.04559994 -0.97149998
-14.24349976 10.10830021 -1.10899997
-14.19190025 10.05249977 -1.20760000
-13.89299965 10.00969982 -1.06299996
-13.11030006 10.14019966 -1.08039999
-12.87489986 10.00450039 -1.06459999
-12.60840034 10.15250015 -0.87519997
-12.42500019 10.18089962 -0.98879999
-12.24629974 10.17539978 -1.08780003
-12.18529987 10.11320019 -1.06439996
-11.96889973 10.16230011 -1.03740001
-8.60560036 10.07479954 -1.06750000
-8.48069954 10.04590034 -1.08969998
-8.21329975 10.02330017 -1.17429996
-8.12709999 10.04100037 -1.21980000
-7.81419992 10.15429974 -1.16090000
-7.69540024 10.18220043 -1.05289996
-7.47840023 10.19180012 -1.11210001
-7.23960018 10.03170013 -1.26090002
-7.05119991 10.18400002 -1.35720003
-6.93179989 10.19169998 -1.35080004
-6.63810015 10.14830017 -1.39979994
-6.56440020 10.15349960 -1.39330006
-6.33650017 10.10830021 -1.36039996
-6.16459990 10.18159962 -1.33519995
-5.83449984 10.12310028 -1.46379995
-5.73080015 10.19540024 -1.43069994
-5.51259995 10.10610008 -1.30920005
-5.32579994 10.19989967 -1.29040003
-5.17449999 10.02280045 -1.27709997
-4.94119978 10.02550030 -1.28129995
-4.78690004 10.04720020 -1.28670001
-4.45330000 10.03929996 -1.28450000
-4.38660002 10.12440014 -1.26730001
-4.19929981 10.04669952 -1.14510000
-3.84660006 10.06250000 -1.20609999
-3.67050004 10.18470001 -1.25510001
-3.44180012 10.00049973 -1.17289996
-3.37030005 10.12530041 -1.20070004
-3.13569999 10.18319988 -1.10220003
-2.95230007 10.08489990 -1.10850000
-2.60739994 10.19550037 -1.14349997
-2.47020006 10.04850006 -1.17349994
-2.21169996 10.12539959 -1.10870004
-2.17939997 10.08290005 -1.07869995
-1.82809997 10.04419994 -1.06690001
-1.68649995 10.05459976 -1.18739998
-1.58920002 10.19939995 -1.11759996
-1.25999999 10.02700043 -1.16559994
-1.17379999 10.04209995 -1.17019999
-0.94019997 10.00399971 -1.24539995
-0.78719997 10.17549992 -1.27550006
-0.54269999 10.03349972 -1.25039995
-0.24800000 10.04590034 -1.28120005
-0.03080000 10.14039993 -1.29400003
0.19010000 10.10939980 -1.32009995
0.38240001 10.10280037 -1.40120006
0.46090001 10.01259995 -1.41310000
0.61619997 10.07830048 -1.37790000
0.83690000 10.05379963 -1.35469997
1.00530005 10.03789997 -1.30680001
1.23909998 10.04259968 -1.15799999
1.43200004 10.02159977 -1.28690004
1.60469997 10.08780003 -1.22150004
1.81519997 10.19659996 -1.20150006
2.09949994 10.08500004 -1.20410001
2.27979994 10.15799999 -1.19149995
2.56710005 10.17980003 -1.16700006
2.75600004 10.06980038 -1.16349995
2.99480009 10.10680008 -1.17499995
3.00289989 10.08749962 -1.18659997
3.22390008 10.03899956 -1.14590001
3.40639997 10.02519989 -1.07400000
3.64409995 10.00129986 -1.07490003
3.94350004 10.02900028 -1.14709997
4.17819977 10.18620014 -1.18589997
4.24450016 10.14109993 -1.22710001
4.41989994 10.01379967 -1.21809995
4.61590004 10.11919975 -1.18270004
4.83580017 10.00909996 -1.14110005
5.07679987 10.17860031 -1.11290002
5.32800007 10.05690002 -1.11020005
5.57880020 10.15289974 -1.12479997
5.73999977 10.00199986 -1.13010001
5.98939991 10.12020016 -1.16919994
6.00930023 10.04759979 -1.15760005
6.30009985 10.18319988 -1.11570001
6.54479980 10.18190002 -1.09770000
6.77110004 10.19009972 -1.15170002
6.94859982 10.12240028 -1.16760004
7.19540024 10.11690044 -1.18099999
7.38859987 10.17549992 -1.25329995
7.50939989 10.17899990 -1.26839995
7.69700003 10.17809963 -1.27869999
7.98799992 10.19060040 -1.21570003
8.01410007 10.18109989 -1.22549999
8.28969955 10.07489967 -1.08360004
8.59829998 10.12460041 -1.08589995
8.74960041 10.17389965 -1.13750005
8.87069988 10.14799976 -1.13779998
9.00310040 10.04969978 -0.84450001
9.29469967 10.15719986 -0.82370001
9.51449966 10.13010025 -0.84700000
9.76049995 10.09179974 -0.85430002
9.86789989 10.07849979 -0.87989998
10.14350033 10.15019989 -0.75580001
10.39249992 10.15330029 -0.85060000
10.45339966 10.15909958 -0.86129999
10.79950047 10.12300014 -0.74489999
10.87880039 10.19600010 -0.78359997
11.18109989 10.11209965 -0.76550001
11.39980030 10.13910007 -0.78299999
12.61110020 10.15660000 -1.11189997
12.95320034 10.15989971 -1.19060004
13.01659966 10.03929996 -1.05599999
13.29489994 10.11349964 -0.93349999
-14.41479969 10.20930004 -0.90189999
-14.35879993 10.28789997 -1.05250001
-13.82009983 10.33090019 -1.08570004
-12.85620022 10.30230045 -0.90270001
-12.73419952 10.29669952 -0.96719998
-12.42430019 10.34829998 -1.13180006
-12.32299995 10.30700016 -1.14110005
-12.16440010 10.21259975 -1.14680004
-11.91429996 10.22259998 -1.05060005
-8.67870045 10.21090031 -1.05929995
-8.57009983 10.31180000 -1.01520002
-8.39470005 10.22000027 -0.97640002
-8.12699986 10.32960033 -0.94569999
-7.81759977 10.26070023 -0.94540000
-7.78970003 10.25010014 -0.96829998
-7.41029978 10.24829960 -1.14619994
-7.34159994 10.23149967 -1.19840002
-7.05830002 10.25520039 -1.26380002
-6.82110023 10.26290035 -1.36440003
-6.62349987 10.24330044 -1.35720003
-6.55970001 10.20279980 -1.37890005
-6.38059998 10.24549961 -1.35339999
-6.13490009 10.31569958 -1.35870004
-5.80499983 10.23320007 -1.43859994
-5.70819998 10.22809982 -1.44630003
-5.40089989 10.35910034 -1.32770002
-5.25920010 10.39490032 -1.34309995
-5.00229979 10.35490036 -1.32760000
-4.98369980 10.38230038 -1.33070004
-4.70410013 10.36390018 -1.29270005
-4.52159977 10.38910007 -1.28230000
-4.21859980 10.24750042 -1.30369997
-4.09730005 10.34630013 -1.25650001
