-3.26300001 -5.82000017 -1.57099998 1.000000 1.000000
-3.14100003 -5.83300018 -1.64800000 1.000000 1.000000
-2.91100001 -5.85200024 -1.61699998 1.000000 1.000000
-2.83500004 -5.84100008 -1.86399996 1.000000 1.000000
-2.78299999 -5.86399984 -1.82000005 1.000000 1.000000
-2.69400001 -5.84800005 -1.86600006 1.000000 1.000000
-2.44799995 -5.84600019 -1.67799997 1.000000 1.000000
-2.28999996 -5.84700012 -1.56200004 1.000000 1.000000
-2.13100004 -5.83500004 -1.63199997 1.000000 1.000000
-0.86900002 -5.83099985 -1.55299997 1.000000 1.000000
-0.61600000 -5.87200022 -1.62300003 1.000000 1.000000
-0.58200002 -5.82600021 -1.66900003 1.000000 1.000000
-0.45500001 -5.80100012 -1.69000006 1.000000 1.000000
-0.39399999 -5.80600023 -1.65900004 1.000000 1.000000
4.37300014 -5.80600023 -1.14600003 1.000000 1.000000
4.48600006 -5.88500023 -1.10000002 1.000000 1.000000
4.68699980 -5.83699989 -1.26199996 1.000000 1.000000
4.88299990 -5.84499979 -1.29900002 1.000000 1.000000
4.91599989 -5.88399982 -1.29799998 1.000000 1.000000
5.02400017 -5.86999989 -1.24300003 1.000000 1.000000
5.15700006 -5.84700012 -1.23399997 1.000000 1.000000
5.27400017 -5.80100012 -1.24600005 1.000000 1.000000
5.33099985 -5.89900017 -1.19700003 1.000000 1.000000
5.46700001 -5.85400009 -1.17499995 1.000000 1.000000
5.51300001 -5.88100004 -1.15699995 1.000000 1.000000
5.65600014 -5.81899977 -1.15900004 1.000000 1.000000
5.70400000 -5.87500000 -1.13800001 1.000000 1.000000
5.82499981 -5.80100012 -1.09000003 1.000000 1.000000
5.90199995 -5.90000010 -1.06400001 1.000000 1.000000
6.01599979 -5.81099987 -1.05599999 1.000000 1.000000
6.11199999 -5.89599991 -1.05599999 1.000000 1.000000
6.20599985 -5.80800009 -1.03499997 1.000000 1.000000
6.31500006 -5.80200005 -1.02199996 1.000000 1.000000
6.41400003 -5.89300013 -0.99400002 1.000000 1.000000
6.59700012 -5.80399990 -0.99100000 1.000000 1.000000
6.64099979 -5.82700014 -0.99100000 1.000000 1.000000
6.75699997 -5.82800007 -0.99599999 1.000000 1.000000
6.81300020 -5.86000013 -1.00300002 1.000000 1.000000
6.90600014 -5.82000017 -0.99000001 1.000000 1.000000
7.01900005 -5.87099981 -0.95099998 1.000000 1.000000
7.15000010 -5.80100012 -0.93900001 1.000000 1.000000
7.23600006 -5.88600016 -1.10000002 1.000000 1.000000
7.30800009 -5.81699991 -0.82300001 1.000000 1.000000
7.40100002 -5.87599993 -0.77300000 1.000000 1.000000
7.78100014 -5.89400005 -0.95300001 1.000000 1.000000
8.00000000 -5.80100012 -0.92100000 1.000000 1.000000
8.10299969 -5.88299990 -0.89499998 1.000000 1.000000
8.20300007 -5.80299997 -0.84700000 1.000000 1.000000
8.30599976 -5.88299990 -0.83200002 1.000000 1.000000
8.44999981 -5.82000017 -0.80699998 1.000000 1.000000
8.50800037 -5.81199980 -0.75800002 1.000000 1.000000
9.09599972 -5.84499979 -0.78200001 1.000000 1.000000
9.15400028 -5.89699984 -0.79400003 1.000000 1.000000
9.22900009 -5.87200022 -0.77700001 1.000000 1.000000
9.36900043 -5.88700008 -0.75800002 1.000000 1.000000
9.43700027 -5.81300020 -0.74500000 1.000000 1.000000
9.51099968 -5.86600018 -0.72299999 1.000000 1.000000
9.68700027 -5.87500000 -0.67600000 1.000000 1.000000
9.72599983 -5.80999994 -0.68300003 1.000000 1.000000
9.85299969 -5.80100012 -0.68199998 1.000000 1.000000
9.90400028 -5.81500006 -0.66399997 1.000000 1.000000
10.17899990 -5.85599995 -0.67900002 1.000000 1.000000
10.29699993 -5.80399990 -0.69800001 1.000000 1.000000
10.37199974 -5.80299997 -0.66399997 1.000000 1.000000
10.44200039 -5.81799984 -0.66100001 1.000000 1.000000
10.53199959 -5.80499983 -0.63400000 1.000000 1.000000
11.98299980 -5.85200024 -0.60299999 1.000000 1.000000
-16.88199997 -5.80000019 -0.39500001 1.000000 1.000000
-16.60000038 -5.78700018 -0.34500000 1.000000 1.000000
-15.90100002 -5.77600002 -0.33199999 1.000000 1.000000
-15.74100018 -5.79600000 -0.39199999 1.000000 1.000000
-15.64999962 -5.75099993 -0.41100001 1.000000 1.000000
-15.54500008 -5.72399998 -0.41900000 1.000000 1.000000
-15.34000015 -5.79099989 -0.39399999 1.000000 1.000000
-15.26500034 -5.78499985 -0.41299999 1.000000 1.000000
-15.11900043 -5.77299976 -0.42899999 1.000000 1.000000
-15.04300022 -5.77699995 -0.45800000 1.000000 1.000000
-14.90699959 -5.70300007 -0.47400001 1.000000 1.000000
-14.80200005 -5.79199982 -0.48199999 1.000000 1.000000
-14.76000023 -5.74300003 -0.47999999 1.000000 1.000000
-14.62500000 -5.78399992 -0.50599998 1.000000 1.000000
-14.51200008 -5.71899986 -0.55100000 1.000000 1.000000
-14.42300034 -5.71500015 -0.56800002 1.000000 1.000000
-14.37399960 -5.71600008 -0.57599998 1.000000 1.000000
-14.20699978 -5.77500010 -0.60900003 1.000000 1.000000
-14.12500000 -5.78599977 -0.67400002 1.000000 1.000000
-14.00800037 -5.74800014 -0.70599997 1.000000 1.000000
-13.97000027 -5.73199987 -0.71399999 1.000000 1.000000
-13.80500031 -5.71500015 -0.72500002 1.000000 1.000000
-13.70899963 -5.75600004 -0.77800000 1.000000 1.000000
-13.68900013 -5.74800014 -0.79600000 1.000000 1.000000
-13.51500034 -5.78399992 -0.81599998 1.000000 1.000000
-13.42300034 -5.78299999 -0.82900000 1.000000 1.000000
-13.30599976 -5.79400015 -0.86000001 1.000000 1.000000
-13.28699970 -5.77500010 -0.85900003 1.000000 1.000000
-13.11600018 -5.73999977 -0.87500000 1.000000 1.000000
-13.02499962 -5.73899984 -0.88800001 1.000000 1.000000
-12.95100021 -5.74599981 -0.88400000 1.000000 1.000000
-12.83100033 -5.74100018 -0.91299999 1.000000 1.000000
-12.71100044 -5.73600006 -0.94900000 1.000000 1.000000
-12.61499977 -5.75000000 -0.97899997 1.000000 1.000000
-12.51200008 -5.70300007 -1.02300000 1.000000 1.000000
-12.41399956 -5.75199986 -1.02699995 1.000000 1.000000
-12.31499958 -5.70599985 -1.06099999 1.000000 1.000000
-12.28699970 -5.70300007 -1.07599998 1.000000 1.000000
-12.10999966 -5.72200012 -1.15699995 1.000000 1.000000
-12.08100033 -5.71799994 -1.17200005 1.000000 1.000000
-11.91199970 -5.75400019 -1.19299996 1.000000 1.000000
-11.86200047 -5.78599977 -1.22399998 1.000000 1.000000
-11.76599979 -5.73000002 -1.19700003 1.000000 1.000000
-11.42000008 -5.73199987 -1.21700001 1.000000 1.000000
-11.31099987 -5.76800013 -1.24199998 1.000000 1.000000
-11.20100021 -5.73899984 -1.27900004 1.000000 1.000000
-11.14400005 -5.71799994 -1.32099998 1.000000 1.000000
-11.07800007 -5.70300007 -1.32900000 1.000000 1.000000
-10.91100025 -5.71099997 -1.31400001 1.000000 1.000000
-10.82499981 -5.76200008 -1.34700000 1.000000 1.000000
-10.73499966 -5.77500010 -1.36300004 1.000000 1.000000
-10.69999981 -5.75600004 -1.35000002 1.000000 1.000000
-10.51799965 -5.70200014 -1.36800003 1.000000 1.000000
-10.42199993 -5.70900011 -1.38100004 1.000000 1.000000
-10.39900017 -5.78999996 -1.36800003 1.000000 1.000000
-10.22999954 -5.70499992 -1.37600005 1.000000 1.000000
-10.19799995 -5.76200008 -1.37600005 1.000000 1.000000
-10.06400013 -5.70300007 -1.36699998 1.000000 1.000000
-9.94900036 -5.72700024 -1.39300001 1.000000 1.000000
-9.81299973 -5.73899984 -1.41600001 1.000000 1.000000
-9.77900028 -5.72800016 -1.41799998 1.000000 1.000000
-9.61400032 -5.70499992 -1.32799995 1.000000 1.000000
-9.50100040 -5.70300007 -1.31599998 1.000000 1.000000
-9.40900040 -5.72800016 -1.37199998 1.000000 1.000000
-9.32299995 -5.70699978 -1.38900006 1.000000 1.000000
-9.23299980 -5.70800018 -1.39999998 1.000000 1.000000
-9.11600018 -5.70100021 -1.43499994 1.000000 1.000000
-9.01700020 -5.70100021 -1.42400002 1.000000 1.000000
-8.50399971 -5.75099993 -1.45500004 1.000000 1.000000
-8.41399956 -5.73600006 -1.47000003 1.000000 1.000000
-8.37600040 -5.70200014 -1.47599995 1.000000 1.000000
-8.25000000 -5.71799994 -1.43599999 1.000000 1.000000
-8.10700035 -5.79199982 -1.42499995 1.000000 1.000000
-8.08899975 -5.78700018 -1.43599999 1.000000 1.000000
-7.96000004 -5.76200008 -1.45000005 1.000000 1.000000
-7.80100012 -5.72200012 -1.45200002 1.000000 1.000000
-7.73400021 -5.71099997 -1.50500000 1.000000 1.000000
-7.60799980 -5.78900003 -1.50300002 1.000000 1.000000
-7.53999996 -5.70100021 -1.55299997 1.000000 1.000000
-7.44399977 -5.72399998 -1.58500004 1.000000 1.000000
-7.38700008 -5.71000004 -1.58800006 1.000000 1.000000
-7.22900009 -5.77299976 -1.54400003 1.000000 1.000000
-7.16200018 -5.71099997 -1.52800000 1.000000 1.000000
-7.09899998 -5.71500015 -1.50899994 1.000000 1.000000
-6.92199993 -5.70100021 -1.51900005 1.000000 1.000000
-6.84200001 -5.77699995 -1.54600000 1.000000 1.000000
-6.71000004 -5.70400000 -1.61800003 1.000000 1.000000
-6.64200020 -5.71099997 -1.61500001 1.000000 1.000000
-6.52099991 -5.72100019 -1.60500002 1.000000 1.000000
-6.40100002 -5.73199987 -1.62899995 1.000000 1.000000
-6.30999994 -5.70100021 -1.67299998 1.000000 1.000000
-6.28200006 -5.71000004 -1.67499995 1.000000 1.000000
-6.10699987 -5.78800011 -1.69900000 1.000000 1.000000
-6.01900005 -5.70499992 -1.71300006 1.000000 1.000000
-5.91499996 -5.80000019 -1.74300003 1.000000 1.000000
-5.88199997 -5.77500010 -1.74000001 1.000000 1.000000
-5.77799988 -5.70300007 -1.70799994 1.000000 1.000000
-5.66099977 -5.71099997 -1.63399994 1.000000 1.000000
-5.53399992 -5.71799994 -1.70099998 1.000000 1.000000
-5.41900015 -5.72100019 -1.71000004 1.000000 1.000000
-5.37900019 -5.71600008 -1.69299996 1.000000 1.000000
-5.26499987 -5.70100021 -1.64800000 1.000000 1.000000
-5.13299990 -5.74900007 -1.64699996 1.000000 1.000000
-5.01399994 -5.76200008 -1.68799996 1.000000 1.000000
-4.90700006 -5.73000002 -1.75600004 1.000000 1.000000
-4.81500006 -5.74800014 -1.77600002 1.000000 1.000000
-4.77099991 -5.72300005 -1.77900004 1.000000 1.000000
-4.68499994 -5.74800014 -1.78100002 1.000000 1.000000
-4.55800009 -5.75500011 -1.78199995 1.000000 1.000000
-4.47499990 -5.80000019 -1.77900004 1.000000 1.000000
-4.39400005 -5.71799994 -1.75100005 1.000000 1.000000
-4.00699997 -5.71099997 -1.66100001 1.000000 1.000000
-3.99099994 -5.79300022 -1.61399996 1.000000 1.000000
-3.80900002 -5.77600002 -1.61500001 1.000000 1.000000
-3.79200006 -5.76499987 -1.62500000 1.000000 1.000000
-3.69499993 -5.75799990 -1.58399999 1.000000 1.000000
-3.37199998 -5.71199989 -1.65900004 1.000000 1.000000
-3.22000003 -5.70800018 -1.55999994 1.000000 1.000000
-3.14000010 -5.77899981 -1.64900005 1.000000 1.000000
-3.03800011 -5.76399994 -1.85699999 1.000000 1.000000
-2.90100002 -5.73699999 -1.82900000 1.000000 1.000000
-2.80999994 -5.78999996 -1.68299997 1.000000 1.000000
-2.71900010 -5.79699993 -1.73899996 1.000000 1.000000
-2.69099998 -5.74700022 -1.72300005 1.000000 1.000000
-0.64399999 -5.72700024 -1.62300003 1.000000 1.000000
-0.57700002 -5.70100021 -1.64499998 1.000000 1.000000
-0.47999999 -5.79199982 -1.70000005 1.000000 1.000000
-0.40000001 -5.70200014 -1.72300005 1.000000 1.000000
-0.24900000 -5.76999998 -1.63800001 1.000000 1.000000
-0.11500000 -5.74700022 -1.67299998 1.000000 1.000000
4.63999987 -5.77099991 -1.27199996 1.000000 1.000000
4.92600012 -5.78599977 -1.26199996 1.000000 1.000000
5.06400013 -5.72700024 -1.24899995 1.000000 1.000000
5.19399977 -5.71999979 -1.24800003 1.000000 1.000000
5.20300007 -5.70100021 -1.24699998 1.000000 1.000000
5.31300020 -5.71000004 -1.27999997 1.000000 1.000000
5.40000010 -5.71000004 -1.19799995 1.000000 1.000000
5.54600000 -5.72800016 -1.18499994 1.000000 1.000000
5.61899996 -5.72900009 -1.16700006 1.000000 1.000000
5.77099991 -5.71899986 -1.16100001 1.000000 1.000000
5.80000019 -5.77600002 -1.11199999 1.000000 1.000000
5.90799999 -5.70599985 -1.09500003 1.000000 1.000000
6.00899982 -5.70599985 -1.06700003 1.000000 1.000000
6.15799999 -5.70100021 -1.03799999 1.000000 1.000000
6.22200012 -5.79899979 -1.02499998 1.000000 1.000000
6.36000013 -5.78599977 -1.00300002 1.000000 1.000000
6.45800018 -5.71199989 -1.03900003 1.000000 1.000000
6.55700016 -5.71299982 -1.02600002 1.000000 1.000000
6.60799980 -5.73600006 -1.01499999 1.000000 1.000000
6.85500002 -5.79300022 -0.99599999 1.000000 1.000000
6.90199995 -5.79500008 -0.98299998 1.000000 1.000000
7.04199982 -5.72800016 -0.97200000 1.000000 1.000000
7.12799978 -5.73600006 -0.95700002 1.000000 1.000000
7.20200014 -5.74599981 -0.90499997 1.000000 1.000000
7.31699991 -5.79500008 -0.81000000 1.000000 1.000000
7.48000002 -5.70300007 -0.76899999 1.000000 1.000000
7.57100010 -5.71299982 -0.78700000 1.000000 1.000000
7.65399981 -5.72200012 -0.80000001 1.000000 1.000000
7.71000004 -5.74900007 -0.78600001 1.000000 1.000000
7.99599981 -5.77600002 -0.93099999 1.000000 1.000000
8.01200008 -5.70400000 -0.94700003 1.000000 1.000000
8.11800003 -5.73600006 -0.89499998 1.000000 1.000000
8.28699970 -5.70800018 -0.84799999 1.000000 1.000000
8.31099987 -5.76200008 -0.81400001 1.000000 1.000000
8.41699982 -5.75000000 -0.81400001 1.000000 1.000000
8.50699997 -5.76399994 -0.79500002 1.000000 1.000000
8.60799980 -5.73899984 -0.78700000 1.000000 1.000000
8.99800014 -5.77400017 -0.77300000 1.000000 1.000000
9.01099968 -5.76499987 -0.78700000 1.000000 1.000000
9.27600002 -5.77799988 -0.68699998 1.000000 1.000000
9.30200005 -5.79500008 -0.70200002 1.000000 1.000000
9.47000027 -5.73500013 -0.70200002 1.000000 1.000000
9.57999992 -5.70599985 -0.72200000 1.000000 1.000000
9.65499973 -5.73500013 -0.71300000 1.000000 1.000000
9.75199986 -5.78399992 -0.68400002 1.000000 1.000000
9.85000038 -5.70200014 -0.69400001 1.000000 1.000000
9.90100002 -5.78100014 -0.69099998 1.000000 1.000000
10.02700043 -5.79500008 -0.64700001 1.000000 1.000000
10.13399982 -5.78000021 -0.67400002 1.000000 1.000000
10.27200031 -5.72300005 -0.68699998 1.000000 1.000000
10.31400013 -5.70300007 -0.68800002 1.000000 1.000000
10.40699959 -5.71199989 -0.65600002 1.000000 1.000000
11.95699978 -5.73600006 -0.64099997 1.000000 1.000000
12.26799965 -5.74499989 -0.51800001 1.000000 1.000000
12.31900024 -5.72200012 -0.47700000 1.000000 1.000000
-16.21199989 -5.60500002 -0.40099999 1.000000 1.000000
-16.15200043 -5.60900021 -0.36800000 1.000000 1.000000
-16.01099968 -5.61299992 -0.39700001 1.000000 1.000000
-15.93700027 -5.62200022 -0.38499999 1.000000 1.000000
-15.51799965 -5.65799999 -0.40700001 1.000000 1.000000
-15.47399998 -5.68699980 -0.44800001 1.000000 1.000000
-15.37100029 -5.68200016 -0.44499999 1.000000 1.000000
-15.27999973 -5.60400009 -0.43200001 1.000000 1.000000
-15.12300014 -5.65600014 -0.43900001 1.000000 1.000000
-15.00300026 -5.65199995 -0.47600001 1.000000 1.000000
-14.91300011 -5.62900019 -0.49300000 1.000000 1.000000
-14.83699989 -5.61199999 -0.51099998 1.000000 1.000000
-14.78199959 -5.60200024 -0.49900001 1.000000 1.000000
-14.66899967 -5.60099983 -0.49599999 1.000000 1.000000
-14.50199986 -5.67399979 -0.53100002 1.000000 1.000000
-14.40499973 -5.62599993 -0.56599998 1.000000 1.000000
-14.30200005 -5.68699980 -0.60200000 1.000000 1.000000
-14.22900009 -5.60699987 -0.62699997 1.000000 1.000000
-14.15100002 -5.60699987 -0.63400000 1.000000 1.000000
-14.03600025 -5.69500017 -0.69700003 1.000000 1.000000
-13.90699959 -5.69600010 -0.72000003 1.000000 1.000000
-13.82499981 -5.61999989 -0.75300002 1.000000 1.000000
-13.70400047 -5.63399982 -0.78500003 1.000000 1.000000
-13.61800003 -5.62799978 -0.80800003 1.000000 1.000000
-13.59099960 -5.63600016 -0.79799998 1.000000 1.000000
-13.49199963 -5.63500023 -0.81099999 1.000000 1.000000
-13.30500031 -5.69399977 -0.82999998 1.000000 1.000000
-13.21700001 -5.65600014 -0.84299999 1.000000 1.000000
-13.19099998 -5.61600018 -0.81300002 1.000000 1.000000
-13.01399994 -5.64699984 -0.85000002 1.000000 1.000000
-12.93400002 -5.60300016 -0.88900000 1.000000 1.000000
-12.80399990 -5.64200020 -0.90899998 1.000000 1.000000
-12.72700024 -5.66499996 -0.94900000 1.000000 1.000000
-12.63599968 -5.67199993 -0.97799999 1.000000 1.000000
-12.53499985 -5.66599989 -1.01499999 1.000000 1.000000
-12.42000008 -5.63299990 -1.05799997 1.000000 1.000000
-12.34500027 -5.62599993 -1.06900001 1.000000 1.000000
-12.21700001 -5.60599995 -1.10200000 1.000000 1.000000
-12.14099979 -5.62500000 -1.16499996 1.000000 1.000000
-12.09700012 -5.67899990 -1.17200005 1.000000 1.000000
-11.92300034 -5.67899990 -1.19099998 1.000000 1.000000
-11.81400013 -5.60900021 -1.19599998 1.000000 1.000000
-11.72799969 -5.61100006 -1.18099999 1.000000 1.000000
-11.68000031 -5.67799997 -1.19599998 1.000000 1.000000
-11.52799988 -5.69700003 -1.20899999 1.000000 1.000000
-11.41300011 -5.63999987 -1.22899997 1.000000 1.000000
-11.31799984 -5.62799978 -1.24399996 1.000000 1.000000
-11.21500015 -5.61999989 -1.29900002 1.000000 1.000000
-11.11200047 -5.69299984 -1.34000003 1.000000 1.000000
-11.08399963 -5.66200018 -1.33599997 1.000000 1.000000
-10.91800022 -5.67199993 -1.34399998 1.000000 1.000000
-10.89000034 -5.65799999 -1.34800005 1.000000 1.000000
-10.74199963 -5.64099979 -1.36399996 1.000000 1.000000
-10.68000031 -5.61800003 -1.35699999 1.000000 1.000000
-10.54100037 -5.68800020 -1.33099997 1.000000 1.000000
-10.40900040 -5.62500000 -1.38999999 1.000000 1.000000
-10.34899998 -5.61000013 -1.39100003 1.000000 1.000000
-10.27900028 -5.61499977 -1.39900005 1.000000 1.000000
-10.16100025 -5.69000006 -1.38300002 1.000000 1.000000
-10.04300022 -5.66499996 -1.40600002 1.000000 1.000000
-9.97599983 -5.66099977 -1.41400003 1.000000 1.000000
-9.88799953 -5.61800003 -1.40199995 1.000000 1.000000
-9.75699997 -5.69799995 -1.39999998 1.000000 1.000000
-9.68200016 -5.63100004 -1.39499998 1.000000 1.000000
-9.50599957 -5.66499996 -1.37800002 1.000000 1.000000
-9.44400024 -5.60400009 -1.39600003 1.000000 1.000000
-9.31099987 -5.64300013 -1.40400004 1.000000 1.000000
-9.22799969 -5.61700010 -1.44900000 1.000000 1.000000
-9.14799976 -5.64699984 -1.43499994 1.000000 1.000000
-9.04699993 -5.60200024 -1.44700003 1.000000 1.000000
-8.99699974 -5.60300016 -1.46200001 1.000000 1.000000
-8.89799976 -5.61800003 -1.44500005 1.000000 1.000000
-8.44200039 -5.69399977 -1.47599995 1.000000 1.000000
-8.36900043 -5.68200016 -1.48599994 1.000000 1.000000
-8.10400009 -5.63100004 -1.37399995 1.000000 1.000000
-8.03499985 -5.64300013 -1.41100001 1.000000 1.000000
-7.92000008 -5.61299992 -1.43900001 1.000000 1.000000
-7.80399990 -5.69299984 -1.48699999 1.000000 1.000000
-7.72300005 -5.66499996 -1.50600004 1.000000 1.000000
-7.62699986 -5.67000008 -1.50600004 1.000000 1.000000
-7.50699997 -5.69700003 -1.55400002 1.000000 1.000000
-7.40999985 -5.68400002 -1.57599998 1.000000 1.000000
-7.36000013 -5.69600010 -1.58299994 1.000000 1.000000
-7.25899982 -5.62599993 -1.59200001 1.000000 1.000000
-7.19399977 -5.66900015 -1.55799997 1.000000 1.000000
-7.09000015 -5.60200024 -1.54900002 1.000000 1.000000
-6.91599989 -5.68100023 -1.51699996 1.000000 1.000000
-6.81400013 -5.68200016 -1.57799995 1.000000 1.000000
-6.70300007 -5.60400009 -1.62800002 1.000000 1.000000
-6.63299990 -5.60799980 -1.66299999 1.000000 1.000000
-6.55000019 -5.61100006 -1.64600003 1.000000 1.000000
-6.47100019 -5.63399982 -1.64300001 1.000000 1.000000
-6.31199980 -5.65999985 -1.66799998 1.000000 1.000000
-6.23799992 -5.68499994 -1.69299996 1.000000 1.000000
-6.10900021 -5.60300016 -1.71200001 1.000000 1.000000
-6.06699991 -5.61299992 -1.69099998 1.000000 1.000000
-5.96799994 -5.68499994 -1.75600004 1.000000 1.000000
-5.86100006 -5.63800001 -1.73800004 1.000000 1.000000
-5.80000019 -5.65799999 -1.72599995 1.000000 1.000000
-5.65299988 -5.63399982 -1.71099997 1.000000 1.000000
-5.54500008 -5.68699980 -1.68700004 1.000000 1.000000
-5.40500021 -5.69899988 -1.70400000 1.000000 1.000000
-5.35200024 -5.65000010 -1.73000002 1.000000 1.000000
-5.28599977 -5.61700010 -1.71899998 1.000000 1.000000
-5.16699982 -5.60200024 -1.69400001 1.000000 1.000000
-5.00400019 -5.62500000 -1.66799998 1.000000 1.000000
-4.91499996 -5.66900015 -1.72200000 1.000000 1.000000
-4.87900019 -5.67500019 -1.74800003 1.000000 1.000000
-4.73699999 -5.67500019 -1.75999999 1.000000 1.000000
-4.63500023 -5.68800020 -1.77699995 1.000000 1.000000
-4.51200008 -5.68400002 -1.76699996 1.000000 1.000000
-4.48299980 -5.68800020 -1.77800000 1.000000 1.000000
-4.37300014 -5.69099998 -1.74699998 1.000000 1.000000
-4.29799986 -5.60900021 -1.75300002 1.000000 1.000000
-4.12099981 -5.61800003 -1.64999998 1.000000 1.000000
-4.01999998 -5.66699982 -1.60800004 1.000000 1.000000
-3.98600006 -5.67999983 -1.61600006 1.000000 1.000000
-3.64499998 -5.65700006 -1.64300001 1.000000 1.000000
-3.52999997 -5.60900021 -1.62699997 1.000000 1.000000
-3.49499989 -5.60699987 -1.57299995 1.000000 1.000000
-3.36500001 -5.69099998 -1.65400004 1.000000 1.000000
-3.20300007 -5.68800020 -1.56299996 1.000000 1.000000
-3.10200000 -5.63500023 -1.66900003 1.000000 1.000000
-3.01500010 -5.64200020 -1.84099996 1.000000 1.000000
-2.95600009 -5.63299990 -1.56099999 1.000000 1.000000
-2.81399989 -5.63700008 -1.72800004 1.000000 1.000000
-2.72000003 -5.68499994 -1.71599996 1.000000 1.000000
-2.64899993 -5.67799997 -1.71800005 1.000000 1.000000
-2.59599996 -5.60699987 -1.66100001 1.000000 1.000000
-2.37700009 -5.69600010 -1.63399994 1.000000 1.000000
-2.29500008 -5.60900021 -1.55599999 1.000000 1.000000
-2.10899997 -5.62300014 -1.60599995 1.000000 1.000000
-2.05699992 -5.68699980 -1.65400004 1.000000 1.000000
-0.61900002 -5.63199997 -1.63800001 1.000000 1.000000
-0.55500001 -5.62599993 -1.65799999 1.000000 1.000000
-0.45500001 -5.62099981 -1.71200001 1.000000 1.000000
-0.39500001 -5.62699986 -1.68900001 1.000000 1.000000
-0.26400000 -5.63000011 -1.63300002 1.000000 1.000000
-0.17900001 -5.61800003 -1.68599999 1.000000 1.000000
-0.05100000 -5.61600018 -1.71599996 1.000000 1.000000
0.01500000 -5.63700008 -1.71399999 1.000000 1.000000
0.34700000 -5.60099983 -1.61099994 1.000000 1.000000
0.41400000 -5.60599995 -1.62500000 1.000000 1.000000
0.59500003 -5.61399984 -1.51699996 1.000000 1.000000
0.64800000 -5.68900013 -1.50399995 1.000000 1.000000
4.33400011 -5.67799997 -1.25500000 1.000000 1.000000
4.40600014 -5.67500019 -1.24800003 1.000000 1.000000
4.50600004 -5.62599993 -1.23399997 1.000000 1.000000
4.75600004 -5.60699987 -1.04600000 1.000000 1.000000
5.07100010 -5.61199999 -1.26999998 1.000000 1.000000
5.11600018 -5.69099998 -1.25600004 1.000000 1.000000
5.21099997 -5.60799980 -1.25100005 1.000000 1.000000
5.38100004 -5.64699984 -1.19900000 1.000000 1.000000
5.48000002 -5.61499977 -1.18099999 1.000000 1.000000
5.52299976 -5.65899992 -1.17999995 1.000000 1.000000
5.60200024 -5.66300011 -1.16900003 1.000000 1.000000
5.76700020 -5.64900017 -1.16400003 1.000000 1.000000
5.81899977 -5.61399984 -1.16499996 1.000000 1.000000
5.96799994 -5.62599993 -1.09300005 1.000000 1.000000
6.00199986 -5.61000013 -1.06900001 1.000000 1.000000
6.13500023 -5.69399977 -1.04100001 1.000000 1.000000
6.29300022 -5.64499998 -1.06200004 1.000000 1.000000
6.31199980 -5.60400009 -1.03900003 1.000000 1.000000
6.46899986 -5.60799980 -1.04200006 1.000000 1.000000
6.52299976 -5.67600012 -1.03100002 1.000000 1.000000
6.63199997 -5.62099981 -1.01999998 1.000000 1.000000
6.70800018 -5.66900015 -0.99100000 1.000000 1.000000
6.83400011 -5.65100002 -0.96700001 1.000000 1.000000
6.99200010 -5.63399982 -0.99000001 1.000000 1.000000
7.01200008 -5.65100002 -0.99900001 1.000000 1.000000
7.10300016 -5.67399979 -0.95700002 1.000000 1.000000
7.21799994 -5.65700006 -0.93599999 1.000000 1.000000
7.31699991 -5.66400003 -0.82700002 1.000000 1.000000
7.48899984 -5.61299992 -0.81900001 1.000000 1.000000
7.58799982 -5.61399984 -0.86100000 1.000000 1.000000
7.60099983 -5.63000011 -0.85699999 1.000000 1.000000
7.95499992 -5.68699980 -0.93599999 1.000000 1.000000
8.01200008 -5.63199997 -0.93099999 1.000000 1.000000
8.12399960 -5.65500021 -0.89099997 1.000000 1.000000
8.25300026 -5.69299984 -0.83200002 1.000000 1.000000
8.31000042 -5.65299988 -0.81500000 1.000000 1.000000
8.48299980 -5.60799980 -0.78700000 1.000000 1.000000
8.57199955 -5.61299992 -0.81199998 1.000000 1.000000
8.60499954 -5.60500002 -0.80699998 1.000000 1.000000
8.79899979 -5.62200022 -0.78799999 1.000000 1.000000
8.82800007 -5.63999987 -0.79699999 1.000000 1.000000
9.07299995 -5.62099981 -0.73100001 1.000000 1.000000
9.14299965 -5.63100004 -0.76300001 1.000000 1.000000
9.36600018 -5.60300016 -0.72000003 1.000000 1.000000
9.48400021 -5.68100023 -0.73600000 1.000000 1.000000
9.54399967 -5.61199999 -0.73699999 1.000000 1.000000
9.65499973 -5.63700008 -0.71600002 1.000000 1.000000
9.71399975 -5.62300014 -0.72600001 1.000000 1.000000
9.82900047 -5.69000006 -0.67799997 1.000000 1.000000
9.92599964 -5.67799997 -0.67500001 1.000000 1.000000
10.19200039 -5.69399977 -0.67500001 1.000000 1.000000
10.29100037 -5.61600018 -0.67000002 1.000000 1.000000
10.31499958 -5.63700008 -0.67900002 1.000000 1.000000
10.77499962 -5.62300014 -0.71799999 1.000000 1.000000
11.81799984 -5.60500002 -0.63200003 1.000000 1.000000
11.90299988 -5.67999983 -0.62900001 1.000000 1.000000
12.05900002 -5.66499996 -0.56900001 1.000000 1.000000
12.23299980 -5.68200016 -0.50800002 1.000000 1.000000
-16.14800072 -5.50099993 -0.39899999 1.000000 1.000000
-16.02499962 -5.50600004 -0.42800000 1.000000 1.000000
-15.96000004 -5.59499979 -0.40599999 1.000000 1.000000
-15.82999992 -5.54899979 -0.42399999 1.000000 1.000000
-15.72299957 -5.59399986 -0.36899999 1.000000 1.000000
-15.68900013 -5.57100010 -0.38900000 1.000000 1.000000
-15.42500019 -5.52899981 -0.41400000 1.000000 1.000000
-15.34799957 -5.51200008 -0.46300000 1.000000 1.000000
-15.22999954 -5.50099993 -0.49100000 1.000000 1.000000
-15.10499954 -5.56199980 -0.50800002 1.000000 1.000000
-15.06900024 -5.55999994 -0.49700001 1.000000 1.000000
-14.95699978 -5.56400013 -0.50400001 1.000000 1.000000
-14.81200027 -5.59200001 -0.51999998 1.000000 1.000000
-14.76200008 -5.59399986 -0.50800002 1.000000 1.000000
-14.64400005 -5.58099985 -0.51400000 1.000000 1.000000
-14.51200008 -5.55200005 -0.55900002 1.000000 1.000000
-14.40600014 -5.54300022 -0.58399999 1.000000 1.000000
-14.30900002 -5.54699993 -0.62000000 1.000000 1.000000
-14.22599983 -5.58599997 -0.63599998 1.000000 1.000000
-14.16600037 -5.56300020 -0.64300001 1.000000 1.000000
-14.10000038 -5.55600023 -0.63999999 1.000000 1.000000
-13.90499973 -5.57999992 -0.67100000 1.000000 1.000000
-13.81099987 -5.59299994 -0.75199997 1.000000 1.000000
-13.75100040 -5.57999992 -0.77700001 1.000000 1.000000
-13.61499977 -5.57700014 -0.80699998 1.000000 1.000000
-13.57400036 -5.57000017 -0.81400001 1.000000 1.000000
-13.11699963 -5.58400011 -0.82700002 1.000000 1.000000
-13.08600044 -5.57999992 -0.86100000 1.000000 1.000000
-12.91399956 -5.58400011 -0.86900002 1.000000 1.000000
-12.81000042 -5.55900002 -0.91600001 1.000000 1.000000
-12.72200012 -5.58599997 -0.93699998 1.000000 1.000000
-12.64799976 -5.59399986 -0.96799999 1.000000 1.000000
-12.53899956 -5.55399990 -1.01999998 1.000000 1.000000
-12.40900040 -5.54300022 -1.01999998 1.000000 1.000000
-12.34599972 -5.59899998 -1.07700002 1.000000 1.000000
-12.22399998 -5.55299997 -1.09200001 1.000000 1.000000
-12.13799953 -5.57000017 -1.17900002 1.000000 1.000000
-12.02400017 -5.55299997 -1.17799997 1.000000 1.000000
-11.96000004 -5.51399994 -1.18799996 1.000000 1.000000
-11.80799961 -5.58799982 -1.19500005 1.000000 1.000000
-11.74699974 -5.51399994 -1.20400000 1.000000 1.000000
-11.64099979 -5.50899982 -1.22700000 1.000000 1.000000
-11.52000046 -5.51200008 -1.26600003 1.000000 1.000000
-11.41800022 -5.58799982 -1.25199997 1.000000 1.000000
-11.31499958 -5.52799988 -1.27199996 1.000000 1.000000
-11.21199989 -5.56699991 -1.29600000 1.000000 1.000000
-11.14299965 -5.57399988 -1.31400001 1.000000 1.000000
-11.00699997 -5.55100012 -1.33899999 1.000000 1.000000
-10.97999954 -5.54600000 -1.35200000 1.000000 1.000000
-10.83199978 -5.52400017 -1.38199997 1.000000 1.000000
-10.77099991 -5.50199986 -1.37500000 1.000000 1.000000
-10.60900021 -5.51200008 -1.35200000 1.000000 1.000000
-10.44600010 -5.58699989 -1.34700000 1.000000 1.000000
-10.31299973 -5.55700016 -1.39900005 1.000000 1.000000
-10.21700001 -5.59700012 -1.46599996 1.000000 1.000000
-10.18400002 -5.57900000 -1.44599998 1.000000 1.000000
-10.08800030 -5.53299999 -1.42499995 1.000000 1.000000
-9.91100025 -5.50099993 -1.41900003 1.000000 1.000000
-9.80300045 -5.54699993 -1.43099999 1.000000 1.000000
-9.76900005 -5.53599977 -1.41999996 1.000000 1.000000
-9.65799999 -5.51300001 -1.42700005 1.000000 1.000000
-9.58199978 -5.57200003 -1.40900004 1.000000 1.000000
-9.40200043 -5.57100010 -1.48699999 1.000000 1.000000
-9.34700012 -5.54699993 -1.47099996 1.000000 1.000000
-9.22700024 -5.51399994 -1.45500004 1.000000 1.000000
-9.13199997 -5.59800005 -1.42999995 1.000000 1.000000
-9.02000046 -5.54500008 -1.46700001 1.000000 1.000000
-8.92199993 -5.50799990 -1.48699999 1.000000 1.000000
-8.85299969 -5.51300001 -1.49199998 1.000000 1.000000
-8.71700001 -5.50400019 -1.47500002 1.000000 1.000000
-8.14599991 -5.55399990 -1.43599999 1.000000 1.000000
-8.04399967 -5.51399994 -1.41999996 1.000000 1.000000
-7.90600014 -5.50199986 -1.45200002 1.000000 1.000000
-7.80399990 -5.55299997 -1.49300003 1.000000 1.000000
-7.75500011 -5.56899977 -1.50100005 1.000000 1.000000
-7.62200022 -5.57600021 -1.50899994 1.000000 1.000000
-7.50099993 -5.58400011 -1.55400002 1.000000 1.000000
-7.48600006 -5.54300022 -1.60200000 1.000000 1.000000
-7.34899998 -5.51999998 -1.61699998 1.000000 1.000000
-7.23299980 -5.51200008 -1.60599995 1.000000 1.000000
-7.13399982 -5.50699997 -1.59099996 1.000000 1.000000
-7.03800011 -5.51100016 -1.58399999 1.000000 1.000000
-6.95599985 -5.50299978 -1.56599998 1.000000 1.000000
-6.82200003 -5.58199978 -1.57299995 1.000000 1.000000
-6.71199989 -5.59100008 -1.61000001 1.000000 1.000000
-6.61999989 -5.58300018 -1.66400003 1.000000 1.000000
-6.55299997 -5.52600002 -1.69200003 1.000000 1.000000
-6.45200014 -5.50500011 -1.67900002 1.000000 1.000000
-6.34800005 -5.51300001 -1.70299995 1.000000 1.000000
-6.27600002 -5.54300022 -1.70700002 1.000000 1.000000
-6.10500002 -5.57200003 -1.71200001 1.000000 1.000000
-6.07499981 -5.56500006 -1.72300005 1.000000 1.000000
-5.92399979 -5.55700016 -1.73099995 1.000000 1.000000
-5.87099981 -5.59200001 -1.73800004 1.000000 1.000000
-5.70499992 -5.55800009 -1.74399996 1.000000 1.000000
-5.65100002 -5.54899979 -1.74000001 1.000000 1.000000
-5.59700012 -5.53100014 -1.71800005 1.000000 1.000000
-5.40700006 -5.59399986 -1.69299996 1.000000 1.000000
-5.32200003 -5.55399990 -1.71000004 1.000000 1.000000
-5.20499992 -5.57200003 -1.69500005 1.000000 1.000000
-5.16499996 -5.56500006 -1.70799994 1.000000 1.000000
-5.07100010 -5.59499979 -1.71300006 1.000000 1.000000
-4.95800018 -5.53999996 -1.69200003 1.000000 1.000000
-4.80299997 -5.57299995 -1.74199998 1.000000 1.000000
-4.78200006 -5.59100008 -1.73699999 1.000000 1.000000
-4.67500019 -5.52600002 -1.74800003 1.000000 1.000000
-4.57700014 -5.56699991 -1.77900004 1.000000 1.000000
-4.44899988 -5.58199978 -1.78499997 1.000000 1.000000
-4.30000019 -5.57999992 -1.72399998 1.000000 1.000000
-4.12699986 -5.54400015 -1.66400003 1.000000 1.000000
-4.08500004 -5.55499983 -1.65999997 1.000000 1.000000
-3.97199988 -5.56300020 -1.59599996 1.000000 1.000000
-3.75000000 -5.50199986 -1.54600000 1.000000 1.000000
-3.61299992 -5.57100010 -1.63800001 1.000000 1.000000
-3.54999995 -5.58599997 -1.66900003 1.000000 1.000000
-3.48399997 -5.50400019 -1.65100002 1.000000 1.000000
-3.30100012 -5.59100008 -1.64100003 1.000000 1.000000
-3.27399993 -5.56899977 -1.61500001 1.000000 1.000000
-3.11400008 -5.57100010 -1.65999997 1.000000 1.000000
-3.03299999 -5.56500006 -1.80700004 1.000000 1.000000
-3.00000000 -5.50500011 -1.69400001 1.000000 1.000000
-2.80100012 -5.58300018 -1.71300006 1.000000 1.000000
-2.78099990 -5.59700012 -1.72700000 1.000000 1.000000
-2.65199995 -5.56199980 -1.67700005 1.000000 1.000000
-2.56299996 -5.59800005 -1.65100002 1.000000 1.000000
-2.28200006 -5.59800005 -1.56799996 1.000000 1.000000
-2.16100001 -5.54699993 -1.64499998 1.000000 1.000000
-2.09500003 -5.56500006 -1.59000003 1.000000 1.000000
-0.72299999 -5.57000017 -1.65499997 1.000000 1.000000
-0.63400000 -5.53499985 -1.66799998 1.000000 1.000000
-0.50199997 -5.54799986 -1.68299997 1.000000 1.000000
-0.42800000 -5.54799986 -1.70799994 1.000000 1.000000
-0.37500000 -5.57999992 -1.66999996 1.000000 1.000000
-0.21900000 -5.54699993 -1.69599998 1.000000 1.000000
-0.11400000 -5.51399994 -1.87300003 1.000000 1.000000
-0.01600000 -5.57999992 -1.84800005 1.000000 1.000000
0.04300000 -5.54699993 -1.85200000 1.000000 1.000000
0.29600000 -5.51300001 -1.68299997 1.000000 1.000000
0.38900000 -5.58400011 -1.63699996 1.000000 1.000000
0.40200001 -5.53800011 -1.63499999 1.000000 1.000000
0.55000001 -5.52099991 -1.59300005 1.000000 1.000000
0.63099998 -5.54300022 -1.47700000 1.000000 1.000000
4.28800011 -5.50899982 -1.21800005 1.000000 1.000000
4.35500002 -5.58799982 -1.24500000 1.000000 1.000000
4.63899994 -5.53900003 -1.08800006 1.000000 1.000000
4.75400019 -5.56899977 -1.07400000 1.000000 1.000000
5.08699989 -5.58099985 -1.25399995 1.000000 1.000000
5.10200024 -5.59700012 -1.26699996 1.000000 1.000000
5.26900005 -5.50400019 -1.29499996 1.000000 1.000000
5.37599993 -5.53800011 -1.21700001 1.000000 1.000000
5.40399981 -5.57299995 -1.20899999 1.000000 1.000000
5.50799990 -5.50600004 -1.18299997 1.000000 1.000000
5.66900015 -5.55299997 -1.16900003 1.000000 1.000000
5.78200006 -5.59100008 -1.15400004 1.000000 1.000000
5.87599993 -5.51900005 -1.10000002 1.000000 1.000000
5.93200016 -5.55800009 -1.09899998 1.000000 1.000000
6.00000000 -5.59200001 -1.08200002 1.000000 1.000000
6.14400005 -5.52600002 -1.07500005 1.000000 1.000000
6.22800016 -5.57900000 -1.06599998 1.000000 1.000000
6.30499983 -5.53999996 -1.03799999 1.000000 1.000000
6.44399977 -5.58699989 -1.04400003 1.000000 1.000000
6.54899979 -5.54300022 -1.03400004 1.000000 1.000000
6.61299992 -5.59700012 -1.02199996 1.000000 1.000000
6.71099997 -5.54199982 -1.00999999 1.000000 1.000000
6.89699984 -5.58099985 -0.96700001 1.000000 1.000000
6.96700001 -5.59399986 -0.98000002 1.000000 1.000000
7.03399992 -5.57000017 -0.96100003 1.000000 1.000000
7.10500002 -5.53000021 -0.94199997 1.000000 1.000000
7.20100021 -5.55399990 -0.90499997 1.000000 1.000000
7.31400013 -5.51100016 -0.85900003 1.000000 1.000000
7.49700022 -5.58199978 -0.85900003 1.000000 1.000000
7.56099987 -5.55100012 -0.88599998 1.000000 1.000000
7.89900017 -5.57499981 -0.89499998 1.000000 1.000000
7.94000006 -5.55700016 -0.92699999 1.000000 1.000000
8.05900002 -5.55900002 -0.89300001 1.000000 1.000000
8.23799992 -5.50099993 -0.83499998 1.000000 1.000000
8.39000034 -5.57100010 -0.82999998 1.000000 1.000000
8.42199993 -5.58400011 -0.82599998 1.000000 1.000000
8.54500008 -5.58799982 -0.80900002 1.000000 1.000000
8.69699955 -5.55700016 -0.79799998 1.000000 1.000000
8.76299953 -5.59899998 -0.77800000 1.000000 1.000000
8.82699966 -5.59999990 -0.74299997 1.000000 1.000000
8.92300034 -5.58099985 -0.70800000 1.000000 1.000000
9.03899956 -5.59999990 -0.72200000 1.000000 1.000000
9.16100025 -5.54099989 -0.73299998 1.000000 1.000000
9.28100014 -5.57299995 -0.72100002 1.000000 1.000000
9.34799957 -5.51900005 -0.75099999 1.000000 1.000000
9.45499992 -5.54400015 -0.75099999 1.000000 1.000000
9.52400017 -5.53800011 -0.72700000 1.000000 1.000000
9.63099957 -5.50899982 -0.71799999 1.000000 1.000000
9.78899956 -5.55800009 -0.70700002 1.000000 1.000000
9.81400013 -5.58099985 -0.68800002 1.000000 1.000000
10.16199970 -5.50400019 -0.65300000 1.000000 1.000000
10.41199970 -5.57100010 -0.64499998 1.000000 1.000000
10.58600044 -5.54199982 -0.69800001 1.000000 1.000000
11.58699989 -5.52099991 -0.46700001 1.000000 1.000000
11.67700005 -5.52099991 -0.60799998 1.000000 1.000000
11.75599957 -5.54099989 -0.62000000 1.000000 1.000000
11.88700008 -5.53900003 -0.56800002 1.000000 1.000000
11.94400024 -5.56500006 -0.57900000 1.000000 1.000000
12.78499985 -5.51399994 -0.45400000 1.000000 1.000000
12.80399990 -5.54099989 -0.45500001 1.000000 1.000000
14.14700031 -5.51900005 -0.35200000 1.000000 1.000000
-16.32299995 -5.41200018 -0.39199999 1.000000 1.000000
-16.00099945 -5.40799999 -0.38499999 1.000000 1.000000
-15.91699982 -5.41300011 -0.42500001 1.000000 1.000000
-15.83500004 -5.49900007 -0.39199999 1.000000 1.000000
-15.73400021 -5.45200014 -0.44200000 1.000000 1.000000
-15.68500042 -5.42299986 -0.46100000 1.000000 1.000000
-15.54599953 -5.40899992 -0.46799999 1.000000 1.000000
-15.40999985 -5.42299986 -0.46399999 1.000000 1.000000
-15.34300041 -5.41200018 -0.47299999 1.000000 1.000000
-15.21800041 -5.45499992 -0.47999999 1.000000 1.000000
-15.12100029 -5.40999985 -0.49700001 1.000000 1.000000
-14.92800045 -5.41200018 -0.51099998 1.000000 1.000000
-14.61200047 -5.40199995 -0.55100000 1.000000 1.000000
-14.58800030 -5.40399981 -0.55000001 1.000000 1.000000
-14.40499973 -5.50000000 -0.58399999 1.000000 1.000000
-14.31499958 -5.46600008 -0.61900002 1.000000 1.000000
-14.27600002 -5.46199989 -0.64600003 1.000000 1.000000
-14.15499973 -5.43599987 -0.64999998 1.000000 1.000000
-14.09399986 -5.44399977 -0.65799999 1.000000 1.000000
-13.92000008 -5.43599987 -0.66900003 1.000000 1.000000
-13.80500031 -5.42100000 -0.70099998 1.000000 1.000000
-13.73700047 -5.47300005 -0.72700000 1.000000 1.000000
-13.68799973 -5.49300003 -0.76300001 1.000000 1.000000
-13.53699970 -5.48199987 -0.79200000 1.000000 1.000000
-13.10700035 -5.46400023 -0.83300000 1.000000 1.000000
-13.02700043 -5.44999981 -0.85500002 1.000000 1.000000
-12.91699982 -5.46099997 -0.87500000 1.000000 1.000000
-12.80799961 -5.41499996 -0.93800002 1.000000 1.000000
-12.78800011 -5.40600014 -0.92799997 1.000000 1.000000
-12.65200043 -5.50000000 -0.97399998 1.000000 1.000000
-12.53999996 -5.46899986 -0.99199998 1.000000 1.000000
-12.41399956 -5.49900007 -1.03600001 1.000000 1.000000
-12.32499981 -5.45900011 -1.05400002 1.000000 1.000000
-12.23299980 -5.43599987 -1.10599995 1.000000 1.000000
-12.16600037 -5.40600014 -1.11699998 1.000000 1.000000
-12.00699997 -5.46400023 -1.14800000 1.000000 1.000000
-11.93299961 -5.42999983 -1.19099998 1.000000 1.000000
-11.86900043 -5.41800022 -1.19400001 1.000000 1.000000
-11.72000027 -5.44000006 -1.23099995 1.000000 1.000000
-11.61800003 -5.42700005 -1.26300001 1.000000 1.000000
-11.51799965 -5.44199991 -1.28699994 1.000000 1.000000
-11.45199966 -5.42000008 -1.30400002 1.000000 1.000000
-11.31000042 -5.43699980 -1.30700004 1.000000 1.000000
-11.28100014 -5.44000006 -1.31299996 1.000000 1.000000
-11.11100006 -5.41099977 -1.33399999 1.000000 1.000000
-11.09700012 -5.40399981 -1.35599995 1.000000 1.000000
-10.91100025 -5.45800018 -1.36399996 1.000000 1.000000
-10.81099987 -5.41699982 -1.41299999 1.000000 1.000000
-10.74699974 -5.43699980 -1.39199996 1.000000 1.000000
-10.69400024 -5.46299982 -1.38100004 1.000000 1.000000
-10.58500004 -5.50000000 -1.34099996 1.000000 1.000000
-10.40100002 -5.43599987 -1.34200001 1.000000 1.000000
-10.34300041 -5.48199987 -1.35300004 1.000000 1.000000
-10.20199966 -5.49700022 -1.42100000 1.000000 1.000000
-10.13599968 -5.49499989 -1.45799994 1.000000 1.000000
-9.93000031 -5.47900009 -1.41999996 1.000000 1.000000
-9.83100033 -5.48299980 -1.43099999 1.000000 1.000000
-9.70400047 -5.41900015 -1.44099998 1.000000 1.000000
-9.60299969 -5.44199991 -1.45200002 1.000000 1.000000
-9.57800007 -5.41200018 -1.43299997 1.000000 1.000000
-9.47200012 -5.42999983 -1.42200005 1.000000 1.000000
-9.30300045 -5.40199995 -1.48399997 1.000000 1.000000
-9.27900028 -5.41099977 -1.45400000 1.000000 1.000000
-9.19299984 -5.41499996 -1.42400002 1.000000 1.000000
-9.07999992 -5.43499994 -1.44599998 1.000000 1.000000
-8.90499973 -5.49700022 -1.49699998 1.000000 1.000000
-8.81799984 -5.41300011 -1.51300001 1.000000 1.000000
-8.73799992 -5.49300003 -1.48300004 1.000000 1.000000
-8.69400024 -5.48899984 -1.48399997 1.000000 1.000000
-8.01099968 -5.49900007 -1.41499996 1.000000 1.000000
-7.90199995 -5.48500013 -1.46300006 1.000000 1.000000
-7.83900023 -5.41800022 -1.48000002 1.000000 1.000000
-7.70400000 -5.40999985 -1.50999999 1.000000 1.000000
-7.60400009 -5.44000006 -1.54200006 1.000000 1.000000
-7.50600004 -5.46099997 -1.60899997 1.000000 1.000000
-7.48600006 -5.45400000 -1.59899998 1.000000 1.000000
-7.32900000 -5.46299982 -1.63199997 1.000000 1.000000
-7.22399998 -5.46899986 -1.61699998 1.000000 1.000000
-7.13500023 -5.41499996 -1.61000001 1.000000 1.000000
-7.05200005 -5.47300005 -1.63999999 1.000000 1.000000
-6.92899990 -5.40500021 -1.63100004 1.000000 1.000000
-6.89400005 -5.41900015 -1.62800002 1.000000 1.000000
-6.70200014 -5.44899988 -1.60899997 1.000000 1.000000
-6.60599995 -5.45499992 -1.64100003 1.000000 1.000000
-6.54899979 -5.42100000 -1.67200005 1.000000 1.000000
-6.42299986 -5.43800020 -1.67200005 1.000000 1.000000
-6.30700016 -5.44999981 -1.69400001 1.000000 1.000000
-6.25799990 -5.44199991 -1.72899997 1.000000 1.000000
-6.16699982 -5.41099977 -1.72099996 1.000000 1.000000
-6.07800007 -5.48400021 -1.70700002 1.000000 1.000000
-5.93699980 -5.46500015 -1.72500002 1.000000 1.000000
-5.88800001 -5.42000008 -1.72099996 1.000000 1.000000
-5.76800013 -5.48699999 -1.71700001 1.000000 1.000000
-5.61299992 -5.44799995 -1.72300005 1.000000 1.000000
-5.57700014 -5.46099997 -1.71899998 1.000000 1.000000
-5.49800014 -5.42000008 -1.72599995 1.000000 1.000000
-5.39400005 -5.42799997 -1.70099998 1.000000 1.000000
-5.25299978 -5.46299982 -1.71000004 1.000000 1.000000
-5.15899992 -5.46799994 -1.68599999 1.000000 1.000000
-5.04300022 -5.46700001 -1.67299998 1.000000 1.000000
-4.98400021 -5.43800020 -1.66400003 1.000000 1.000000
-4.80200005 -5.49200010 -1.71300006 1.000000 1.000000
-4.73999977 -5.49399996 -1.71800005 1.000000 1.000000
-4.61499977 -5.49499989 -1.78999996 1.000000 1.000000
-4.59200001 -5.46700001 -1.79100001 1.000000 1.000000
-4.49599981 -5.49599981 -1.79499996 1.000000 1.000000
-4.19600010 -5.47499990 -1.72500002 1.000000 1.000000
-4.03100014 -5.47399998 -1.67799997 1.000000 1.000000
-3.93700004 -5.49900007 -1.60599995 1.000000 1.000000
-3.82900000 -5.40600014 -1.62600005 1.000000 1.000000
-3.75500011 -5.46500015 -1.59599996 1.000000 1.000000
-3.67899990 -5.41300011 -1.61500001 1.000000 1.000000
-3.51200008 -5.44399977 -1.65100002 1.000000 1.000000
-3.42000008 -5.44099998 -1.64999998 1.000000 1.000000
-3.31500006 -5.40199995 -1.61899996 1.000000 1.000000
-3.26900005 -5.48799992 -1.66199994 1.000000 1.000000
-3.17100000 -5.49499989 -1.66700006 1.000000 1.000000
-3.06200004 -5.44600010 -1.68799996 1.000000 1.000000
-2.90700006 -5.43200016 -1.69400001 1.000000 1.000000
-2.80900002 -5.47900009 -1.71399999 1.000000 1.000000
-2.72600007 -5.46199989 -1.71500003 1.000000 1.000000
-2.69099998 -5.40899992 -1.71399999 1.000000 1.000000
-2.25799990 -5.48099995 -1.63800001 1.000000 1.000000
-2.14499998 -5.48600006 -1.64300001 1.000000 1.000000
-0.62099999 -5.48799992 -1.66100001 1.000000 1.000000
-0.52899998 -5.46600008 -1.66999996 1.000000 1.000000
-0.43399999 -5.48500013 -1.69200003 1.000000 1.000000
-0.30599999 -5.43699980 -1.67499995 1.000000 1.000000
-0.25400001 -5.40799999 -1.72500002 1.000000 1.000000
-0.10500000 -5.44099998 -1.89699996 1.000000 1.000000
-0.02500000 -5.42000008 -1.90499997 1.000000 1.000000
0.28000000 -5.42700005 -1.49699998 1.000000 1.000000
0.39100000 -5.46899986 -1.61099994 1.000000 1.000000
0.41999999 -5.48099995 -1.59700000 1.000000 1.000000
0.57099998 -5.49200010 -1.61099994 1.000000 1.000000
0.67400002 -5.43599987 -1.53199995 1.000000 1.000000
4.23400021 -5.44000006 -1.16199994 1.000000 1.000000
5.03900003 -5.45800018 -1.25699997 1.000000 1.000000
5.19600010 -5.42799997 -1.29100001 1.000000 1.000000
5.24599981 -5.47900009 -1.29900002 1.000000 1.000000
5.30100012 -5.43200016 -1.25500000 1.000000 1.000000
5.43699980 -5.40700006 -1.21399999 1.000000 1.000000
5.50799990 -5.40299988 -1.19599998 1.000000 1.000000
5.60400009 -5.48999977 -1.18099999 1.000000 1.000000
5.81799984 -5.45100021 -1.10800004 1.000000 1.000000
5.99900007 -5.40799999 -1.09200001 1.000000 1.000000
6.00000000 -5.40899992 -1.13300002 1.000000 1.000000
6.09999990 -5.45699978 -1.09099996 1.000000 1.000000
6.20200014 -5.45599985 -1.04299998 1.000000 1.000000
6.32600021 -5.40799999 -1.03999996 1.000000 1.000000
6.46700001 -5.40999985 -1.06400001 1.000000 1.000000
6.52099991 -5.42700005 -1.04900002 1.000000 1.000000
6.60799980 -5.47900009 -1.00699997 1.000000 1.000000
6.73400021 -5.49800014 -1.00300002 1.000000 1.000000
6.81199980 -5.46899986 -0.99100000 1.000000 1.000000
6.91400003 -5.46299982 -0.96100003 1.000000 1.000000
7.02600002 -5.46899986 -0.94300002 1.000000 1.000000
7.11700010 -5.49599981 -0.93500000 1.000000 1.000000
7.20599985 -5.49399996 -0.89600003 1.000000 1.000000
7.31099987 -5.40799999 -0.87599999 1.000000 1.000000
7.42999983 -5.41699982 -0.88599998 1.000000 1.000000
7.55600023 -5.42299986 -0.89600003 1.000000 1.000000
7.64499998 -5.44999981 -0.91600001 1.000000 1.000000
7.80399990 -5.45499992 -0.92900002 1.000000 1.000000
7.90500021 -5.47300005 -0.92000002 1.000000 1.000000
8.08800030 -5.40100002 -0.83800000 1.000000 1.000000
8.16199970 -5.42700005 -0.84500003 1.000000 1.000000
8.25300026 -5.41099977 -0.82599998 1.000000 1.000000
8.37199974 -5.41599989 -0.84100002 1.000000 1.000000
8.42099953 -5.40299988 -0.80599999 1.000000 1.000000
8.50199986 -5.48500013 -0.81500000 1.000000 1.000000
8.62399960 -5.41900015 -0.73600000 1.000000 1.000000
8.85999966 -5.45100021 -0.69900000 1.000000 1.000000
9.02999973 -5.40899992 -0.64800000 1.000000 1.000000
9.40299988 -5.43499994 -0.74400002 1.000000 1.000000
9.54300022 -5.42700005 -0.74500000 1.000000 1.000000
9.61400032 -5.49900007 -0.70999998 1.000000 1.000000
9.78400040 -5.43400002 -0.68900001 1.000000 1.000000
9.83600044 -5.42999983 -0.69199997 1.000000 1.000000
9.90200043 -5.44299984 -0.67400002 1.000000 1.000000
10.01000023 -5.45499992 -0.67299998 1.000000 1.000000
10.16600037 -5.45499992 -0.68099999 1.000000 1.000000
10.28100014 -5.40899992 -0.70099998 1.000000 1.000000
10.31700039 -5.42799997 -0.69599998 1.000000 1.000000
10.48600006 -5.48999977 -0.67699999 1.000000 1.000000
11.67000008 -5.41200018 -0.46799999 1.000000 1.000000
11.72200012 -5.43599987 -0.53500003 1.000000 1.000000
11.80000019 -5.45400000 -0.52999997 1.000000 1.000000
12.52299976 -5.42899990 -0.51400000 1.000000 1.000000
12.67199993 -5.47499990 -0.46700001 1.000000 1.000000
14.19200039 -5.41599989 -0.38100001 1.000000 1.000000
14.22500038 -5.42799997 -0.37200001 1.000000 1.000000
-16.48800087 -5.34100008 -0.36199999 1.000000 1.000000
-16.13800049 -5.30700016 -0.41900000 1.000000 1.000000
-16.09099960 -5.31199980 -0.40700001 1.000000 1.000000
-15.95699978 -5.38199997 -0.40500000 1.000000 1.000000
-15.85000038 -5.38000011 -0.43399999 1.000000 1.000000
-15.72200012 -5.33599997 -0.45100001 1.000000 1.000000
-15.62600040 -5.39099979 -0.47999999 1.000000 1.000000
-15.51000023 -5.39599991 -0.47700000 1.000000 1.000000
-15.43099976 -5.38000011 -0.47499999 1.000000 1.000000
-15.29899979 -5.39699984 -0.48100001 1.000000 1.000000
-15.10999966 -5.38700008 -0.50599998 1.000000 1.000000
-15.05799961 -5.36800003 -0.51499999 1.000000 1.000000
-14.98200035 -5.30800009 -0.52200001 1.000000 1.000000
-14.85099983 -5.38399982 -0.52800000 1.000000 1.000000
-14.75699997 -5.32999992 -0.54500002 1.000000 1.000000
-14.62699986 -5.30299997 -0.57900000 1.000000 1.000000
-14.52200031 -5.30499983 -0.57599998 1.000000 1.000000
-14.41199970 -5.30700016 -0.59100002 1.000000 1.000000
-14.34599972 -5.35500002 -0.60900003 1.000000 1.000000
-14.27900028 -5.38999987 -0.61600000 1.000000 1.000000
-14.18500042 -5.31500006 -0.62099999 1.000000 1.000000
-14.05399990 -5.30499983 -0.64399999 1.000000 1.000000
-13.92899990 -5.37099981 -0.65899998 1.000000 1.000000
-13.81999969 -5.39699984 -0.69199997 1.000000 1.000000
-13.70800018 -5.34399986 -0.73299998 1.000000 1.000000
-13.66899967 -5.39599991 -0.74100000 1.000000 1.000000
-13.50699997 -5.30399990 -0.75000000 1.000000 1.000000
-13.32100010 -5.31599998 -0.75099999 1.000000 1.000000
-13.28199959 -5.34999990 -0.82200003 1.000000 1.000000
-13.13399982 -5.30900002 -0.83099997 1.000000 1.000000
-13.06400013 -5.35099983 -0.86299998 1.000000 1.000000
-12.99499989 -5.30299997 -0.87599999 1.000000 1.000000
-12.80399990 -5.33799982 -0.90100002 1.000000 1.000000
-12.74100018 -5.37699986 -0.94199997 1.000000 1.000000
-12.60099983 -5.36499977 -0.94999999 1.000000 1.000000
-12.50899982 -5.36299992 -0.97799999 1.000000 1.000000
-12.42000008 -5.39900017 -0.99900001 1.000000 1.000000
-12.38000011 -5.38100004 -1.00399995 1.000000 1.000000
